ply
format ascii 1.0
comment PCL generated
element vertex 1695
property float x
property float y
property float z
element camera 0
property float view_px
property float view_py
property float view_pz
property float x_axisx
property float x_axisy
property float x_axisz
property float y_axisx
property float y_axisy
property float y_axisz
property float z_axisx
property float z_axisy
property float z_axisz
property float focal
property float scalex
property float scaley
property float centerx
property float centery
property int viewportx
property int viewporty
property float k1
property float k2
end_header
71.700073 124.5 14.400142
72.000076 124.5 14.400143
72.300072 124.5 14.400143
72.600082 124.5 14.400142
72.900085 124.5 14.400141
90.600258 124.2 14.400144
70.20005 124.19999 14.700146
70.500053 124.19999 14.700146
70.800056 124.19999 14.700146
71.10006 124.19999 14.700145
71.400063 124.19999 14.700144
71.700066 124.19999 14.700148
72.000069 124.2 14.700147
72.300064 124.19999 14.700147
72.600075 124.19999 14.700145
72.900078 124.2 14.700143
90.600258 124.2 14.400144
62.699997 124.5 14.400145
72.900085 124.5 14.400141
85.200211 124.5 14.400145
90.300262 124.5 14.400146
62.699997 124.5 14.400145
73.200081 124.8 14.40015
73.500092 124.8 14.400149
90.300262 124.5 14.400146
73.200081 124.5 14.70015
62.999996 124.8 14.400146
73.500092 124.8 14.400149
85.200203 124.8 14.400143
90.000259 124.8 14.400144
62.999996 124.8 14.400146
73.800087 125.10001 14.400144
90.000259 124.8 14.400144
82.800186 124.8 14.700147
83.100182 124.8 14.700148
83.400185 124.8 14.700147
63.299995 125.09999 14.400144
73.800095 125.1 14.400146
85.200211 125.10001 14.400149
89.700256 125.10001 14.400149
63.299995 125.09999 14.400144
81.600174 125.39999 14.400145
81.900177 125.39999 14.400145
82.20018 125.39999 14.400143
82.500183 125.39999 14.400143
82.800186 125.39999 14.400143
83.100189 125.39999 14.400142
83.400185 125.39999 14.400144
83.700195 125.39999 14.400143
84.000198 125.39999 14.400142
89.700256 125.10001 14.400149
81.300171 125.10001 14.70015
81.600174 125.10001 14.700153
81.900177 125.10001 14.700153
82.20018 125.10001 14.700152
82.500183 125.10001 14.700152
82.800186 125.10001 14.700151
83.100189 125.10001 14.700152
83.400185 125.10001 14.700152
83.700195 125.10001 14.700152
84.000191 125.09999 14.700144
63.599998 125.40001 14.400145
73.800095 125.40001 14.400149
81.600174 125.39999 14.400145
84.000198 125.39999 14.400142
85.200203 125.39999 14.400144
89.400253 125.4 14.400143
63.599998 125.40001 14.400145
74.10009 125.7 14.400147
80.700165 125.7 14.400147
81.000168 125.7 14.400146
81.300171 125.70001 14.400146
84.300194 125.70001 14.400147
84.600204 125.70001 14.400146
84.900208 125.7 14.400149
89.400253 125.4 14.400143
77.400131 125.4 14.700146
77.700127 125.4 14.700145
78.000137 125.4 14.700145
80.700165 125.4 14.700146
81.000168 125.4 14.700145
81.300163 125.4 14.700145
84.300194 125.40001 14.700148
84.600204 125.4 14.700146
63.899994 125.7 14.400149
74.10009 125.7 14.400149
80.700165 125.69999 14.400145
89.10025 125.69999 14.400148
63.899994 125.7 14.400149
75.900108 126 14.400145
76.200119 126 14.400144
76.500114 126 14.400143
76.800117 126 14.400146
77.100128 126 14.400146
77.400124 126 14.400146
77.700127 126 14.400145
78.000137 126 14.400145
78.300133 126 14.400147
78.600136 126 14.400147
78.900146 126 14.400146
80.400154 126 14.400146
89.10025 125.69999 14.400148
75.600105 125.7 14.700147
75.900108 125.7 14.700147
76.200111 125.7 14.700147
76.500114 125.7 14.700149
76.800117 125.7 14.700149
77.100121 125.7 14.700148
77.400124 125.7 14.700148
77.700127 125.7 14.700147
78.000137 125.7 14.700146
78.300133 125.7 14.70015
78.600136 125.7 14.70015
80.400154 125.7 14.700149
64.199997 126 14.400144
74.100098 126 14.400146
75.900116 126 14.400145
78.900154 126 14.400146
80.400162 126 14.400146
88.800247 126 14.400146
64.199997 126 14.400144
64.5 126 14.400143
74.400108 126.3 14.400146
74.700111 126.3 14.400146
75.000114 126.30001 14.400146
75.300117 126.3 14.400145
75.600121 126.3 14.400148
79.200157 126.3 14.400147
79.50016 126.30001 14.400146
79.800163 126.30001 14.400146
80.100166 126.3 14.400149
88.800247 126 14.400146
74.400101 126 14.700148
75.000107 126 14.700148
75.30011 126 14.70015
75.600113 126 14.70015
80.100159 126 14.700149
64.800003 126.3 14.400144
88.500244 126.3 14.40014
64.800003 126.3 14.400144
65.100006 126.3 14.400144
68.40004 126.30001 14.400145
88.200241 126.3 14.40014
88.500244 126.3 14.40014
88.500244 126.3 14.40014
65.400002 126.6 14.400148
68.100029 126.6 14.400149
68.700035 126.6 14.400149
87.90023 126.59999 14.400146
65.400002 126.6 14.400148
65.700005 126.6 14.400148
66.000015 126.6 14.400147
66.300011 126.60001 14.400146
66.600014 126.6 14.40015
66.900017 126.6 14.40015
67.20002 126.60001 14.400149
67.500023 126.60001 14.400146
67.800034 126.6 14.400146
68.100029 126.6 14.400149
68.700035 126.6 14.400149
85.500206 126.59999 14.400143
85.800209 126.59999 14.400143
87.600227 126.59999 14.400146
87.90023 126.59999 14.400146
65.400002 126.6 14.400148
68.100029 126.6 14.400149
85.500206 126.59999 14.400143
85.800209 126.59999 14.400143
69 126.9 14.400147
85.200165 126.89999 14.400142
86.100174 126.89999 14.400141
87.300186 126.89999 14.400146
86.100174 126.89999 14.400141
86.400177 126.89999 14.40014
86.70018 126.89999 14.400139
87.000183 126.89999 14.400139
87.300186 126.89999 14.400146
86.100174 126.89999 14.400141
69 127.2 14.400145
85.200165 127.19999 14.400142
69 127.2 14.400145
69 127.2 14.400145
69.299995 127.50001 14.40015
85.200165 127.5 14.400146
69.299995 127.50001 14.40015
69.299995 127.50001 14.40015
69.600006 127.8 14.400146
85.200165 127.80001 14.400145
69.600006 127.8 14.400146
69.900002 127.8 14.400146
70.199997 128.10001 14.400146
85.200157 128.10001 14.400151
70.199997 128.10001 14.400146
70.500008 128.10001 14.400146
85.200157 128.10001 14.400151
70.800003 128.39999 14.400149
84.900139 128.39999 14.400143
70.800003 128.39999 14.400149
71.099998 128.39999 14.400148
71.400009 128.39999 14.400147
73.800026 128.39999 14.40015
74.100037 128.39999 14.400148
84.600143 128.39999 14.400143
84.900139 128.39999 14.400143
71.699997 128.69998 14.400146
73.500015 128.7 14.400143
74.400024 128.7 14.400142
84.300133 128.7 14.400143
71.699997 128.69998 14.400146
72 128.69998 14.400145
72.300011 128.69998 14.400145
72.600006 128.7 14.400145
72.900009 128.7 14.400144
73.20002 128.7 14.400143
73.500015 128.7 14.400143
74.400024 128.7 14.400142
74.700027 128.7 14.40014
79.500084 128.7 14.400144
79.800087 128.7 14.400143
80.100082 128.7 14.400143
80.400085 128.7 14.400142
80.700096 128.7 14.400141
83.700127 128.7 14.400144
84.000122 128.7 14.400144
84.300133 128.7 14.400143
73.500015 128.7 14.400143
74.400024 128.7 14.400142
79.800087 128.7 14.400143
80.100082 128.7 14.400143
80.400085 128.7 14.400142
75 129 14.400144
79.200035 129 14.400145
81.000053 129 14.400139
83.400085 129 14.400144
75 129 14.400144
78.900032 129 14.400146
79.200035 129 14.400145
81.000053 129 14.400139
81.300064 129 14.400146
81.600067 129 14.400146
82.200073 129 14.400146
82.500076 129 14.400145
82.800072 129 14.400144
83.100082 129 14.400144
83.400085 129 14.400144
83.400085 129 14.400144
75.299995 129.3 14.400151
78.600037 129.3 14.400151
81.900063 129.3 14.40015
81.900063 129.3 14.40015
75.299995 129.3 14.400151
75.599998 129.3 14.40015
78.000031 129.3 14.400151
78.300026 129.3 14.400151
78.600037 129.3 14.400151
81.900063 129.3 14.40015
81.900063 129.3 14.40015
75.900002 129.60001 14.400141
77.70002 129.60001 14.400143
75.900002 129.60001 14.400141
76.200005 129.60001 14.400147
76.5 129.60001 14.400147
76.800011 129.60001 14.400146
77.100014 129.60001 14.400144
77.400009 129.60001 14.400144
77.70002 129.60001 14.400143
75.900002 129.60001 14.400141
76.200005 129.60001 14.400147
76.5 129.60001 14.400147
76.800011 129.60001 14.400146
77.100014 129.60001 14.400144
77.400009 129.60001 14.400144
77.70002 129.60001 14.400143
110.10039 68.699997 14.700151
110.10039 68.699997 14.700151
109.80037 69 14.700148
109.80037 69.300003 14.70015
106.50035 69.600006 14.700148
106.50035 69.599998 14.700147
109.80038 69.599998 14.700149
105.90034 69.899994 14.700151
106.20034 69.900002 14.70015
105.90034 69.899994 14.700151
109.80038 69.900002 14.70015
105.60034 70.200005 14.700147
105.60034 70.199997 14.700146
109.80037 70.199997 14.700148
105.30032 70.5 14.700145
110.10038 70.5 14.70015
110.10038 70.199997 15.000154
105.30032 70.5 14.700145
110.10038 70.5 14.70015
105.00032 70.800003 14.700148
105.00032 70.800003 14.700148
110.10038 70.800003 14.700148
104.70033 71.100006 14.70015
110.40038 71.100006 14.700149
105.00032 70.800003 14.700148
110.40038 70.800003 15.000154
104.70033 71.099998 14.70015
110.40039 71.099998 14.700149
104.70033 71.099998 14.70015
104.70033 71.400002 14.700148
110.40039 71.399994 14.700148
104.40032 71.700005 14.700147
110.70039 71.400002 15.000153
104.40031 71.699997 14.70015
110.40038 71.699997 14.700149
104.10032 72 14.700146
110.70038 71.699997 15.000158
104.10032 72 14.700146
110.40039 72 14.700147
103.80032 72.300003 14.700149
110.70038 72.300003 14.700148
110.70038 72 15.000153
103.80032 72.300003 14.700149
110.70038 72.300003 14.700148
103.50031 72.600006 14.700147
103.50031 72.599991 14.700147
110.70039 72.599998 14.700148
103.20032 72.900009 14.70015
103.20032 72.900009 14.70015
110.70038 72.900002 14.70015
103.20031 73.199997 14.700149
110.70038 73.199997 14.700147
102.90031 73.5 14.700148
102.90031 73.5 14.700148
110.70038 73.5 14.700151
102.6003 73.800003 14.70015
110.70038 73.5 14.700151
102.6003 73.800003 14.70015
110.70038 73.799995 14.700144
102.30029 74.100006 14.700148
110.70038 73.799995 14.700144
110.70038 73.799995 14.700144
102.30031 74.099998 14.700149
110.40038 74.099998 14.70015
102.00031 74.399994 14.700148
102.00031 74.399994 14.700148
110.40039 74.400002 14.700148
110.40039 74.400002 14.700148
102.0003 74.699989 14.700146
110.40039 74.699997 14.700146
101.7003 74.999992 14.700147
110.40039 74.699997 14.700146
110.40039 74.699997 14.700146
101.7003 74.999992 14.700147
110.10039 74.999992 14.70015
101.40028 75.299995 14.700147
101.40028 75.299995 14.700147
110.10039 75.300003 14.700148
101.10029 75.600006 14.700146
101.1003 75.599998 14.700149
110.10039 75.599998 14.700149
110.10039 75.599998 14.700149
101.1003 75.899994 14.700151
110.10039 75.900002 14.70015
100.80029 76.200012 14.70015
110.10039 75.900002 14.70015
100.80029 76.199997 14.700147
110.10039 76.199997 14.700149
100.50028 76.500008 14.70015
110.10039 76.199997 14.700149
100.50028 76.500008 14.70015
110.10039 76.5 14.700148
100.20028 76.800003 14.700148
100.20028 76.800003 14.700148
110.10038 76.800003 14.700149
99.900284 77.100006 14.70015
110.40038 77.100006 14.700147
99.900284 77.099991 14.700147
110.40038 77.099998 14.700147
99.600266 77.400009 14.700146
110.40038 77.099998 14.700147
99.600266 77.400009 14.700146
110.40038 77.400002 14.700146
99.30027 77.700012 14.700151
110.70038 77.700005 14.700153
111.9004 77.700005 14.700151
112.2004 77.700005 14.70015
99.30027 77.699997 14.700151
110.70039 77.699997 14.70015
111.90041 77.699997 14.700151
112.20041 77.699997 14.70015
99.000275 78 14.70015
111.0004 78 14.700151
111.30039 78 14.70015
111.6004 78 14.70015
110.70039 77.699997 14.70015
111.90041 77.699997 14.700151
112.20041 77.699997 14.70015
99.000275 78 14.70015
98.700264 78.300003 14.700146
98.700264 78.300003 14.700146
98.400261 78.600006 14.700151
98.400261 78.599991 14.700149
98.100258 78.900002 14.70015
98.400261 78.599991 14.700149
98.100258 78.900002 14.70015
98.100258 78.900002 14.70015
98.100266 79.199997 14.700149
97.800255 79.500008 14.700151
97.800255 79.500008 14.700151
97.800255 79.500008 14.700151
97.800255 79.800003 14.70015
97.800247 80.099998 14.700148
97.500252 80.400009 14.70015
97.500252 80.400009 14.70015
97.500259 80.699997 14.70015
97.500252 80.999992 14.700144
97.500252 81.300003 14.70015
47.099957 81.599998 14.700143
97.200249 81.300003 15.000155
47.099957 81.599998 14.700147
97.500252 81.599998 14.700148
47.399952 81.900002 14.700148
97.200249 81.599998 15.000154
47.399952 81.900002 14.700148
97.500252 81.900009 14.70015
113.40041 81.900009 14.700149
47.699951 82.200005 14.70015
47.999954 82.200005 14.70015
113.40041 81.900009 14.700149
97.200249 81.900009 15.000157
44.09996 82.199997 14.700152
47.999954 82.199997 14.70015
97.500259 82.199997 14.700151
113.10041 82.199997 14.70015
44.09996 82.199997 14.700152
48.29995 82.5 14.700147
112.8004 82.199997 14.700151
113.10041 82.199997 14.70015
97.200256 82.199997 15.000155
44.399963 82.5 14.70015
48.29995 82.5 14.700147
97.500252 82.499992 14.700146
112.50041 82.5 14.700148
44.399963 82.5 14.70015
44.699966 82.5 14.70015
111.3004 82.5 14.70015
111.6004 82.5 14.700149
111.90041 82.5 14.700148
112.20041 82.5 14.700148
112.50041 82.5 14.700148
97.200249 82.5 15.000154
112.80042 82.5 15.000157
44.999962 82.800003 14.700145
48.29995 82.800003 14.700146
97.500259 82.800003 14.700148
111.0004 82.800003 14.700146
44.999962 82.800003 14.700145
45.299961 82.800003 14.700147
48.599949 83.100006 14.70015
110.70039 82.800003 14.700146
111.0004 82.800003 14.700146
44.699959 82.800003 15.000151
97.200256 82.800011 15.000153
111.3004 82.800003 15.000155
111.6004 82.800003 15.000154
111.90041 82.800003 15.000154
112.20041 82.800003 15.000154
45.599953 83.099998 14.700149
48.599953 83.099991 14.70015
97.500252 83.099998 14.70015
110.40039 83.099998 14.700148
45.599953 83.099998 14.700149
48.899952 83.400002 14.700148
102.0003 83.099991 14.700148
102.3003 83.099991 14.700147
110.40039 83.099998 14.700148
45.299957 83.099998 15.000155
48.899948 83.099998 15.000155
97.200249 83.099998 15.000157
110.70038 83.099998 15.000154
45.899963 83.399994 14.700147
48.899956 83.400002 14.700148
97.500259 83.400002 14.700148
101.7003 83.399994 14.700146
102.6003 83.399994 14.700144
110.10039 83.399994 14.700147
45.899963 83.399994 14.700147
49.199951 83.700005 14.700146
97.500259 83.400002 14.700148
101.7003 83.399994 14.700146
102.6003 83.399994 14.700144
102.90031 83.399994 14.700148
97.200256 83.400002 15.000153
102.00031 83.399994 15.000153
102.30031 83.399994 15.000153
102.6003 83.399994 14.700144
102.90031 83.399994 14.700148
103.20032 83.399994 14.700146
110.40039 83.400002 15.000151
46.199963 83.699997 14.700147
49.199951 83.699997 14.70015
97.800262 83.699997 14.700149
101.4003 83.700005 14.700148
103.20033 83.699997 14.700151
110.1004 83.699997 14.700148
46.199963 83.699997 14.700147
49.499954 84.000008 14.70015
97.800262 83.699997 14.700149
101.1003 83.699997 14.70015
101.4003 83.700005 14.700148
103.20033 83.699997 14.700151
103.50032 83.700005 14.700151
103.80032 83.700005 14.70015
104.10033 83.700005 14.70015
110.1004 83.699997 14.700148
97.500267 83.700005 15.000154
101.7003 83.700005 15.000158
102.00031 83.700005 15.000158
102.30031 83.700005 15.000158
103.20033 83.699997 14.700151
103.50032 83.700005 14.700151
103.80032 83.700005 14.70015
104.10033 83.700005 14.70015
46.499962 84 14.700152
49.499954 84.000008 14.70015
98.100266 84 14.70015
100.8003 83.999992 14.700148
104.40032 84 14.700148
109.80038 84 14.700151
46.499962 84 14.700152
100.8003 83.999992 14.700148
104.40032 84 14.700148
104.70034 84 14.700147
105.00034 84 14.70015
105.30034 84 14.70015
46.199963 84 15.000154
97.500259 84.000008 15.000155
97.800262 84.000008 15.000154
101.1003 84 15.000152
101.4003 84 15.000151
101.7003 84 15.000156
103.50032 84 15.000154
103.80032 84 15.000153
104.10032 84 15.000153
110.1004 84 15.000154
46.799957 84.300003 14.70015
49.499954 84.300003 14.70015
98.100273 84.300003 14.700151
100.50029 84.300003 14.70015
105.60035 84.300003 14.700151
109.80038 84.300003 14.70015
46.799957 84.300003 14.70015
49.79995 84.600006 14.70015
98.100273 84.300003 14.700151
109.80038 84.300003 14.70015
46.499962 84.300011 15.000156
49.799953 84.300003 15.000154
97.500259 84.300011 15.000156
97.800262 84.300011 15.000156
100.8003 84.300011 15.000156
101.1003 84.300011 15.000156
101.4003 84.300011 15.000156
101.70031 84.300011 15.000155
103.80032 84.300011 15.000158
104.10033 84.300011 15.000158
104.40033 84.300011 15.000157
104.70034 84.300011 15.000156
105.00034 84.300011 15.000156
105.30034 84.300011 15.000155
47.09996 84.600006 14.700147
49.79995 84.599991 14.700146
98.400269 84.599998 14.70015
100.50029 84.599998 14.700149
105.60034 84.599998 14.70015
109.50038 84.599998 14.700145
50.099949 84.899994 14.700148
100.20029 84.599998 14.70015
100.50029 84.599998 14.700149
97.500259 84.600006 15.000155
97.800262 84.600006 15.000154
98.100266 84.600006 15.000154
100.80029 84.600006 15.000155
101.1003 84.600006 15.000154
101.4003 84.600006 15.000154
101.7003 84.600006 15.000154
103.80032 84.600006 15.000156
104.10033 84.600006 15.000156
104.40033 84.600006 15.000155
104.70033 84.600006 15.000154
105.00034 84.600006 15.000154
105.30034 84.600006 15.000154
109.80038 84.599998 15.000155
47.09996 84.900002 14.70015
50.099949 84.899994 14.700148
98.400269 84.900002 14.700151
99.900284 84.900002 14.700148
105.60034 84.899994 14.700148
109.50038 84.899994 14.700146
47.09996 84.900002 14.70015
98.400269 84.900002 14.700151
99.900284 84.900002 14.700148
105.60034 84.899994 14.700148
97.500259 84.900002 15.000157
97.800262 84.900002 15.000156
98.100266 84.900002 15.000156
100.20029 84.899994 15.000155
100.50028 84.899994 15.000154
100.80029 84.899994 15.000154
101.1003 84.899994 15.000153
101.4003 84.900002 15.000153
101.7003 84.900002 15.000153
102.00031 84.900002 15.000151
104.10033 84.900002 15.000154
104.40032 84.900002 15.000154
104.70033 84.900002 15.000154
105.00034 84.900002 15.000153
105.30034 84.900002 15.000153
47.399956 85.199989 14.700147
50.099949 85.199989 14.700146
98.700272 85.199997 14.700149
99.600281 85.199997 14.700148
105.90034 85.199989 14.700146
109.50038 85.199989 14.700145
47.399956 85.199989 14.700147
50.399948 85.5 14.700144
98.700272 85.199997 14.700149
99.600281 85.199997 14.700148
101.1003 85.5 14.700146
105.90034 85.199989 14.700146
109.50038 85.199989 14.700145
50.399948 85.199997 15.000151
97.800255 85.199997 15.000154
98.100273 85.199997 15.000154
98.400269 85.199997 15.000154
99.900291 85.199997 15.000151
100.20029 85.199989 15.000154
100.50029 85.199989 15.000153
100.80029 85.199989 15.000153
101.1003 85.199989 15.000152
101.40029 85.199997 15.000151
101.70031 85.199989 15.000151
102.00031 85.199989 15.00015
102.30031 85.199997 15.000149
104.40033 85.199997 15.000153
104.70033 85.199997 15.000152
105.00033 85.199997 15.000151
105.30033 85.199997 15.000151
105.60034 85.199997 15.00015
47.699955 85.499992 14.700146
50.399948 85.5 14.700144
99.000275 85.5 14.700147
99.300278 85.5 14.700146
101.1003 85.5 14.700146
101.1003 85.5 14.700146
106.20035 85.5 14.70015
109.20038 85.499992 14.700144
47.699955 85.499992 14.700146
50.699951 85.800003 14.700152
99.600281 85.800011 14.700154
97.800255 85.500008 15.00015
98.100273 85.5 15.000149
98.400269 85.5 15.000154
98.700272 85.5 15.000154
99.600273 85.5 15.000154
99.900291 85.5 15.000153
100.20029 85.5 15.000153
100.50029 85.5 15.000152
100.80029 85.5 15.000151
101.4003 85.500008 15.000149
101.70031 85.5 15.000155
102.00031 85.5 15.000154
102.30031 85.5 15.000154
102.60031 85.5 15.000154
104.70033 85.500008 15.00015
105.00033 85.5 15.000156
105.30033 85.5 15.000155
105.60035 85.5 15.000154
105.90034 85.5 15.000154
47.999958 85.800003 14.70015
50.699951 85.800003 14.700152
99.000275 85.800011 14.700151
99.600281 85.800011 14.700154
101.1003 85.800011 14.700151
101.1003 85.800011 14.700151
106.20035 85.800011 14.700155
109.20039 85.800003 14.700149
47.999958 85.800003 14.70015
98.700272 86.100006 14.700151
99.900291 86.100006 14.700149
100.50029 86.100006 14.700148
100.8003 86.100006 14.700146
101.4003 86.100006 14.700149
106.20035 85.800011 14.700155
109.20039 85.800003 14.700149
98.100273 85.800011 15.000154
98.400269 85.800011 15.00016
98.700272 85.800011 15.00016
99.900291 85.800011 15.000157
100.20029 85.800011 15.000156
100.50029 85.800011 15.000156
100.80029 85.800011 15.000156
101.4003 85.800011 15.000154
101.70031 85.800003 15.000161
102.00031 85.800011 15.00016
102.30031 85.800011 15.00016
102.60031 85.800011 15.000159
102.90031 85.800011 15.000158
103.20032 85.800011 15.000158
103.50031 85.800011 15.000158
103.80033 85.800011 15.000156
104.10033 85.800011 15.000156
104.40033 85.800011 15.000156
104.70033 85.800011 15.000155
105.00033 85.800011 15.000162
105.30033 85.800011 15.000161
105.60035 85.800011 15.00016
105.90034 85.800011 15.000159
48.299953 86.099998 14.700147
50.699951 86.099998 14.70015
98.700272 86.100006 14.70015
99.900284 86.099998 14.700151
100.50029 86.100006 14.700151
101.4003 86.100006 14.700149
106.50035 86.100006 14.700153
108.90038 86.099998 14.700148
48.299953 86.099998 14.700147
50.999947 86.400002 14.700149
100.20029 86.399994 14.700146
101.70031 86.399994 14.700147
50.999947 86.100006 15.000155
98.100266 86.100006 15.000153
98.400269 86.100006 15.000158
100.20029 86.100006 15.000156
101.7003 86.100006 15.000159
102.00031 86.100006 15.000158
102.30031 86.100006 15.000158
102.60031 86.100006 15.000158
102.90031 86.100006 15.000156
103.20032 86.100006 15.000156
103.50032 86.100006 15.000156
103.80032 86.100006 15.000154
104.10033 86.100006 15.000154
104.40033 86.100006 15.000154
104.70033 86.100006 15.000154
105.00034 86.100006 15.00016
105.30034 86.100006 15.000159
105.60034 86.100006 15.000158
105.90034 86.100006 15.000158
106.20035 86.100006 15.000157
109.20038 86.099998 15.000154
48.599957 86.400002 14.700149
50.999947 86.400002 14.700149
98.700272 86.400002 14.70015
101.70031 86.399994 14.700147
106.50035 86.400002 14.700148
108.90038 86.400002 14.700146
48.599957 86.400002 14.700149
51.29995 86.700005 14.70015
102.00031 86.700005 14.700151
102.30031 86.700012 14.700151
102.60031 86.700012 14.70015
102.90031 86.700012 14.70015
106.50035 86.400002 14.700148
106.80035 86.400002 14.700147
107.10036 86.400002 14.700147
107.40036 86.400002 14.700146
107.70036 86.400002 14.700146
108.90038 86.400002 14.700146
98.100266 86.400009 15.000154
98.400269 86.400009 15.000154
102.00031 86.400002 15.000151
102.30031 86.400002 15.00015
102.60031 86.400002 15.000149
102.90031 86.400002 15.000149
103.20032 86.400002 15.000148
103.50032 86.400002 15.000154
103.80032 86.400002 15.000154
104.10033 86.400002 15.000154
104.40033 86.400002 15.000153
104.70033 86.400002 15.000152
105.00034 86.400002 15.000151
105.30034 86.400002 15.000151
105.60034 86.400002 15.00015
105.90034 86.400002 15.00015
106.20035 86.400009 15.000149
48.899956 86.699997 14.70015
51.29995 86.699997 14.70015
98.700272 86.699997 14.700151
102.90031 86.699989 14.70015
108.00036 86.699997 14.700147
108.60037 86.699997 14.700149
103.20033 87 14.700148
103.50032 87 14.70015
103.80032 87 14.70015
108.00036 86.699997 14.700147
108.30037 86.699989 14.70015
108.60037 86.699997 14.700149
98.100266 86.699997 15.000153
98.400269 86.699997 15.000158
103.20031 86.699997 15.000153
103.50031 86.699997 15.000153
103.80032 86.699997 15.000152
104.10033 86.699997 15.000151
104.40032 86.699997 15.000151
104.70033 86.699997 15.000151
105.00034 86.699997 15.000156
105.30033 86.699997 15.000156
105.60034 86.699997 15.000155
105.90034 86.699997 15.000154
106.20034 86.699997 15.000154
106.50035 86.699997 15.000153
106.80035 86.699997 15.000153
107.10035 86.699997 15.000153
107.40036 86.699997 15.000152
107.70036 86.699997 15.000151
108.90038 86.699997 15.000155
48.89996 87 14.700149
51.29995 87 14.700148
98.700272 87 14.70015
103.80032 87 14.70015
48.89996 87 14.700149
51.599953 87.300003 14.700146
104.10033 87.300003 14.700144
104.40032 87.300003 14.700144
104.70034 87.299995 14.700143
105.00034 87.299995 14.700146
105.60034 87.300003 14.700144
105.90034 87.300003 14.700144
106.20034 87.300003 14.700147
48.89996 87 14.700149
98.100266 87 15.000154
98.400269 87 15.000154
104.10033 87.000008 15.000156
104.40032 87.000008 15.000156
104.70034 87 15.000155
105.00034 87 15.000154
105.30034 87.000008 15.000154
105.60034 87.000008 15.000154
105.90034 87.000008 15.000154
106.20034 87.000008 15.000153
106.50036 87 15.000158
106.80035 87 15.000154
107.10036 87 15.000154
107.40036 87 15.000153
107.70036 87 15.000153
108.00036 87 15.000153
108.30038 87 15.000152
108.60037 87 15.000151
108.90038 87 15.000151
49.199955 87.300003 14.700146
51.599953 87.300003 14.700146
98.700272 87.300003 14.700148
105.00034 87.299995 14.700146
105.60034 87.300003 14.700144
106.20034 87.300003 14.700147
49.199955 87.300003 14.700146
49.499954 87.300003 14.700146
105.30034 87.600006 14.70015
106.50036 87.600006 14.700151
49.199955 87.300003 14.700146
98.100266 87.300011 15.00015
98.400269 87.300003 15.000156
105.30034 87.300003 15.000153
106.50036 87.300003 15.000151
106.80035 87.300003 15.00015
107.10036 87.300003 15.000149
107.40036 87.300003 15.000149
107.70036 87.300003 15.000148
108.00036 87.300003 15.000147
108.30037 87.300003 15.000154
108.60037 87.300003 15.000153
108.90038 87.300003 15.000153
49.799957 87.599998 14.70015
51.599949 87.599991 14.700147
98.700272 87.599998 14.70015
106.50035 87.599991 14.700148
51.899948 87.900009 14.700149
98.700272 87.599998 14.70015
106.80035 87.900002 14.70015
98.400269 87.599998 15.000154
106.80035 87.599991 15.000154
107.10036 87.599991 15.000154
107.40036 87.599991 15.000154
107.70036 87.599991 15.000153
108.00037 87.599991 15.000153
108.30037 87.599991 15.000152
108.60037 87.599991 15.000151
49.799957 87.900009 14.700152
51.899948 87.900009 14.700149
99.000282 87.900009 14.70015
106.80035 87.900002 14.70015
49.799957 87.900009 14.700152
99.000282 87.900009 14.70015
107.10036 88.200005 14.70015
98.400269 87.900009 15.000159
98.700272 87.900009 15.000159
107.10036 87.900009 15.000153
107.40036 87.900002 15.000153
107.70036 87.900009 15.000151
108.00037 87.900009 15.000151
108.30037 87.900002 15.000156
108.60037 87.900002 15.000156
50.099953 88.200005 14.70015
51.899948 88.200005 14.700147
99.300278 88.200005 14.700149
107.10036 88.199997 14.700148
52.199951 88.5 14.700151
99.300278 88.200005 14.700149
107.40036 88.5 14.700148
98.400269 88.200005 15.000158
98.700272 88.200005 15.000157
99.000275 88.200005 15.000156
107.40036 88.199997 15.000151
107.70036 88.199997 15.00015
108.00036 88.200005 15.000149
108.30037 88.199997 15.000155
50.099953 88.5 14.700148
52.199951 88.5 14.700151
99.600281 88.5 14.700153
107.40036 88.5 14.700148
99.300278 88.800003 14.700149
98.400269 88.5 15.00016
98.700272 88.500008 15.000158
99.000275 88.5 15.000158
99.300278 88.500008 15.000157
107.70036 88.5 15.000152
108.00036 88.5 15.000152
50.099953 88.800003 14.70015
52.199951 88.800003 14.70015
99.300278 88.800003 14.700149
107.40037 88.799995 14.700146
50.099953 88.800003 14.70015
98.700272 88.800011 15.000154
99.000275 88.800011 15.000153
107.70036 88.800003 15.000154
50.099953 89.099998 14.700148
52.199951 89.099998 14.700148
99.300278 89.099998 14.700147
107.40036 89.099991 14.700145
52.499947 89.400002 14.70015
107.70036 89.399994 14.700146
50.099953 89.099998 14.700148
99.000275 89.099998 15.000152
107.70036 89.099998 15.000152
50.099953 89.399994 14.700147
52.499947 89.400002 14.70015
99.300278 89.400002 14.700149
107.70036 89.399994 14.700146
99.000282 89.700005 14.700148
50.099953 89.399994 14.700147
50.099953 89.700005 14.700151
52.499954 89.700005 14.700151
99.000282 89.700005 14.700151
107.70036 89.699997 14.700148
50.099953 89.700005 14.700151
99.000282 89.700005 14.700151
50.099953 90 14.700147
52.49995 90.000008 14.70015
99.000275 90.000008 14.70015
107.70036 90 14.700146
52.799942 90.300003 14.700147
50.099953 90 14.700147
50.099957 90.300011 14.700151
52.79995 90.300011 14.70015
99.000282 90.300003 14.700151
107.70037 90.300003 14.700148
50.099957 90.300011 14.700151
53.099953 90.600014 14.700149
98.700287 90.600006 14.70015
108.00038 90.600014 14.700149
50.099957 90.300011 14.700151
50.39996 90.600006 14.70015
53.099953 90.599998 14.700148
98.700279 90.599998 14.70015
108.00037 90.599998 14.700146
48.59996 90.900002 14.700148
50.39996 90.600006 14.70015
108.30038 90.900002 14.70015
50.39996 90.600006 14.70015
53.099953 90.599998 14.700148
98.700279 90.599998 14.70015
108.00037 90.599998 14.700146
48.59996 90.900002 14.700148
48.59996 90.900002 14.700148
50.699959 90.900002 14.700148
53.099953 90.900002 14.700153
98.700279 90.900002 14.700151
108.30038 90.900002 14.70015
48.899963 91.200005 14.70015
50.699959 90.900002 14.700148
108.60038 91.199997 14.700148
48.59996 90.900002 14.700148
50.699959 90.900002 14.700148
108.30038 90.900002 14.70015
48.59996 91.199997 14.700146
48.899963 91.199997 14.700149
50.999954 91.199997 14.700148
53.099953 91.199997 14.700151
98.700279 91.199997 14.70015
108.60038 91.199997 14.700151
48.59996 91.199997 14.700146
48.899963 91.199997 14.700149
98.400276 91.5 14.700149
48.59996 91.199997 14.700146
48.899963 91.199997 14.700149
108.60038 91.199997 14.700151
50.999954 91.499992 14.700148
53.099953 91.5 14.700144
98.400276 91.5 14.700149
108.60037 91.499992 14.700147
108.90038 91.800003 14.700151
50.999954 91.499992 14.700148
50.999954 91.799995 14.700149
53.099953 91.800003 14.700149
98.400276 91.800003 14.70015
108.90038 91.800003 14.700151
46.499966 92.100006 14.700151
53.399948 92.100006 14.70015
50.999954 91.799995 14.700149
108.90038 91.800003 14.700151
46.499969 92.099998 14.700149
50.999954 92.099998 14.70015
53.399948 92.099998 14.70015
98.400276 92.099998 14.700153
108.90039 92.099998 14.700149
46.799973 92.400002 14.70015
50.699959 92.400002 14.700146
98.100281 92.400002 14.700148
46.499969 92.099998 14.700149
50.999954 92.099998 14.70015
46.799973 92.400002 14.70015
50.699959 92.400002 14.700146
53.399948 92.400002 14.700148
98.100281 92.400002 14.700148
108.90039 92.400009 14.700151
47.099964 92.700005 14.70015
47.399963 92.700005 14.70015
50.39996 92.700012 14.700151
46.799973 92.400002 14.70015
50.699959 92.400002 14.700146
50.999954 92.400002 14.700149
47.399971 92.699997 14.700147
50.399963 92.699997 14.700148
53.399956 92.699997 14.700147
98.100281 92.699997 14.700146
108.90038 92.699997 14.70015
47.699966 93 14.700148
47.999966 93 14.700151
48.299965 93 14.700147
48.599964 93 14.700146
48.899963 93 14.70015
49.199963 93 14.700149
47.399971 92.699997 14.700147
50.399963 92.699997 14.700148
50.699959 92.699997 14.700144
49.199963 93 14.700149
50.399963 93 14.70015
53.399952 92.999992 14.700148
98.100281 93 14.700148
108.90038 93 14.700148
49.499966 93.300003 14.700146
49.799965 93.300003 14.700146
50.09996 93.300003 14.70015
48.899963 93 14.70015
49.199963 93 14.700149
50.399963 93 14.70015
50.699963 93 14.70015
53.399956 93.299995 14.700147
98.100273 93.300003 14.700147
108.90038 93.300003 14.70015
53.699951 93.599998 14.700148
53.699951 93.300003 15.000154
53.699951 93.599991 14.700148
98.100281 93.599991 14.700149
108.90038 93.599998 14.70015
53.699951 93.899994 14.700146
98.100281 93.899994 14.700146
108.90039 93.900002 14.70015
53.999954 93.900002 15.000153
53.699966 94.199997 14.70015
98.100296 94.199997 14.700149
108.9004 94.199997 14.70015
53.999969 94.5 14.700152
108.9004 94.199997 14.70015
53.999969 94.200005 15.000158
53.999969 94.5 14.700152
98.100296 94.5 14.700153
108.6004 94.5 14.70015
98.100296 94.5 14.700153
53.999977 94.800003 14.70015
98.100296 94.799995 14.700148
108.6004 94.800003 14.700149
108.6004 94.800003 14.700149
98.100296 94.799995 14.700148
53.999977 95.099998 14.700149
98.100304 95.099991 14.700147
108.3004 95.099998 14.700147
98.100304 95.099991 14.700147
53.999977 95.400002 14.700151
98.100304 95.400002 14.700151
108.3004 95.399994 14.700149
98.100304 95.400002 14.700151
108.3004 95.399994 14.700149
98.100304 95.400002 14.700151
53.999977 95.699997 14.700149
98.400307 95.699997 14.70015
108.0004 95.699997 14.70015
53.999977 95.699997 14.700149
108.0004 95.699997 14.70015
98.400307 95.699997 14.70015
53.699978 96 14.700145
98.400307 96 14.700148
107.7004 95.999992 14.700144
53.999977 96 15.000154
98.400307 96 14.700148
53.699978 96.300003 14.70015
98.400307 96.300003 14.700153
107.70041 96.300003 14.700149
107.70041 96.300003 14.700149
53.999977 96.300003 15.00016
98.400307 96.300003 14.700153
98.70031 96.300003 14.700152
53.699982 96.599998 14.700148
98.400307 96.599998 14.700151
107.4004 96.599998 14.700147
107.4004 96.599998 14.700147
53.999977 96.599998 15.000158
98.400307 96.599998 14.700151
98.70031 96.599998 14.70015
47.699997 96.900009 14.70015
53.699978 96.900002 14.700147
98.400314 96.900002 14.70015
107.1004 96.900009 14.70015
47.699997 96.900009 14.70015
53.999981 96.900002 15.000154
98.400314 96.900002 14.70015
98.700317 96.900002 14.70015
99.000313 96.900002 14.700149
48 97.199997 14.700151
53.699982 97.199997 14.700148
98.400314 97.199997 14.700151
107.1004 97.199997 14.700151
48 97.199997 14.700151
107.1004 97.199997 14.700151
47.700001 97.199997 15.000159
53.999985 97.199997 15.000152
98.400314 97.199997 14.700151
98.70031 97.199997 14.70015
99.000313 97.199997 14.70015
48.299995 97.5 14.700146
53.699982 97.5 14.700147
98.400314 97.5 14.70015
106.80039 97.499992 14.700147
48.299995 97.5 14.700146
106.80039 97.499992 14.700147
47.999996 97.5 15.00015
53.999985 97.5 15.000153
98.400314 97.5 14.70015
98.70031 97.5 14.700149
48.599998 97.799995 14.700147
53.699982 97.800003 14.700145
98.400307 97.800003 14.700148
106.5004 97.800003 14.70015
48.599998 97.799995 14.700147
48.899994 97.800003 14.700146
53.699982 97.800003 14.700145
98.400307 97.800003 14.700148
106.5004 97.800003 14.70015
48.299995 97.800003 15.000152
53.999985 97.800003 15.000149
98.400307 97.800003 14.700148
98.70031 97.800003 14.700148
49.199997 98.099998 14.700151
53.399979 98.099998 14.70015
98.70031 98.100006 14.700153
106.20039 98.099998 14.700148
49.199997 98.099998 14.700151
106.20039 98.099998 14.700148
48.599998 98.099998 15.00016
48.899994 98.099998 15.000159
53.699986 98.099998 15.000157
53.999985 98.100006 15.000156
98.70031 98.100006 14.700153
49.499996 98.400009 14.700149
53.399979 98.400002 14.700149
98.70031 98.400009 14.70015
105.90038 98.400009 14.70015
49.499996 98.400009 14.700149
98.70031 98.400009 14.70015
99.000305 98.400009 14.70015
105.90038 98.400009 14.70015
48.899994 98.400009 15.000154
49.199997 98.400009 15.000154
53.699982 98.400009 15.000153
53.999985 98.400009 15.000152
98.70031 98.400009 14.70015
99.000305 98.400009 14.70015
49.799995 98.699997 14.70015
53.399986 98.699997 14.700147
99.300331 98.699997 14.700148
105.6004 98.699997 14.700149
49.799995 98.699997 14.70015
53.399986 98.699997 14.700147
99.300331 98.699997 14.700148
105.30038 98.699997 14.70015
105.6004 98.699997 14.700149
49.5 98.700005 15.000151
53.699989 98.699997 15.000151
99.300331 98.699997 14.700148
50.099998 99 14.700151
53.099991 98.999992 14.70015
99.600327 99 14.700149
105.00038 99 14.700152
50.099998 99 14.700151
50.399998 99 14.700151
50.699997 99.000008 14.70015
52.799988 99 14.70015
53.099991 98.999992 14.70015
99.600327 99 14.700149
99.90033 99 14.700152
100.20033 99 14.700151
104.70039 99 14.70015
105.00038 99 14.700152
49.799995 99 15.000159
53.399986 99 15.000154
53.699986 99 15.000153
99.600327 99 14.700149
99.90033 99 14.700152
50.999992 99.300003 14.700148
52.499989 99.300003 14.70015
100.50034 99.300003 14.700149
104.40038 99.300003 14.700149
50.999992 99.300003 14.700148
51.299995 99.300003 14.700148
51.599991 99.300003 14.700148
51.89999 99.300003 14.70015
52.199989 99.300003 14.70015
52.499989 99.300003 14.70015
100.50034 99.300003 14.700149
100.80034 99.300003 14.700149
101.10035 99.300003 14.700148
101.40034 99.300003 14.700151
103.80037 99.300003 14.70015
104.10037 99.300003 14.70015
104.40038 99.300003 14.700149
50.099998 99.300011 15.000154
50.399998 99.300011 15.000154
50.699993 99.300003 15.000149
52.799988 99.300011 15.000153
53.099991 99.300003 15.000158
53.399986 99.300003 15.000154
100.50034 99.300003 14.700149
100.80034 99.300003 14.700149
101.70035 99.599998 14.700149
103.50037 99.599998 14.700149
101.70035 99.599998 14.700149
102.00035 99.599998 14.700148
102.30035 99.599998 14.700148
102.60036 99.599998 14.700147
102.90036 99.599998 14.700147
103.20036 99.599998 14.700146
103.50037 99.599998 14.700149
50.699997 99.600006 15.000151
51 99.599991 15.000154
51.299999 99.599998 15.000153
51.599995 99.599998 15.000153
51.899994 99.599998 15.000153
52.199997 99.599998 15.000152
52.499992 99.599998 15.000152
52.799995 99.599998 15.000151
53.099995 99.600006 15.00015
53.399994 99.599998 15.000156
101.70035 99.599998 14.700149
102.00035 99.599998 14.700148
51 99.900002 15.000159
51.299995 99.899994 15.000154
51.599991 99.900002 15.000154
51.899994 99.900002 15.000154
52.199997 99.900002 15.000154
52.499992 99.900002 15.000153
52.799995 99.900002 15.000153
51.599995 100.2 15.000156
51.899994 100.2 15.000155
56.399994 108.3 15.000154
56.699997 108.3 15.000151
55.799999 108.60001 15.000156
56.099998 108.60001 15.000156
56.399998 108.60001 15.000156
56.699997 108.60001 15.000155
56.999992 108.60001 15.000152
57.299995 108.60001 15.000151
55.799995 108.9 15.000159
56.099995 108.90001 15.000158
56.399994 108.90001 15.000157
56.699997 108.9 15.000154
56.999992 108.9 15.000154
57.299992 108.9 15.000153
55.799999 109.2 15.000157
56.099998 109.2 15.000157
56.400002 109.2 15.000156
56.699997 109.2 15.000153
56.999992 109.2 15.000151
57.299995 109.2 15.000151
57.599998 109.2 15.000151
55.799995 109.5 15.000153
56.099995 109.50001 15.000152
56.399998 109.50001 15.000152
56.699997 109.50001 15.000151
56.999992 109.5 15.000154
57.299992 109.5 15.000154
57.599995 109.5 15.000153
56.699997 110.10001 14.70015
56.999992 110.10001 14.700146
57.299995 110.10001 14.700146
57.599991 110.10001 14.700145
57.899994 110.10001 14.700148
58.199989 110.10001 14.700147
58.499992 110.10001 14.700147
58.799988 110.10001 14.70015
55.799995 109.8 15.000154
56.099995 109.8 15.000154
56.399998 109.80001 15.000153
56.699997 109.8 15.000149
56.999992 109.8 15.000155
57.299992 109.8 15.000154
57.599995 109.8 15.000154
57.89999 109.8 15.000154
58.199989 109.8 15.000154
58.499992 109.8 15.000153
56.699989 110.09999 14.700147
58.799988 110.1 14.700147
54.899994 110.39999 14.700148
55.199993 110.39999 14.700148
55.499992 110.39999 14.70015
55.799995 110.4 14.70015
56.099991 110.4 14.700149
56.39999 110.4 14.700149
59.099983 110.39999 14.700148
59.399986 110.39999 14.700147
56.399994 110.1 15.000148
59.099987 110.1 15.000156
59.399982 110.09999 15.000153
54.899994 110.39999 14.700148
59.399986 110.39999 14.700147
54.299995 110.7 14.700148
54.599995 110.7 14.70015
59.699982 110.7 14.700149
59.699982 110.39999 15.000154
54.299995 110.7 14.700148
59.699982 110.7 14.700149
53.700001 111 14.70015
54 111 14.700147
59.999977 111 14.70015
54.299995 110.7 14.700148
59.999985 110.7 15.000155
53.699997 111 14.700148
59.999977 111 14.70015
53.099998 111.3 14.70015
53.399994 111.3 14.700152
60.29998 111.3 14.700151
53.699997 111 14.700148
60.29998 111 15.000156
53.099998 111.3 14.70015
60.29998 111.3 14.700151
52.799995 111.60001 14.700149
53.099998 111.3 14.70015
52.799995 111.6 14.700149
60.299976 111.6 14.700149
52.499996 111.9 14.700148
52.799995 111.6 14.700149
52.499996 111.9 14.700148
60.299976 111.9 14.700148
52.499996 111.9 14.700148
52.499996 112.2 14.700146
60.299976 112.2 14.700146
52.499996 112.5 14.700148
60.299976 112.5 14.700148
52.200001 112.8 14.70015
52.200001 112.8 14.70015
60.29998 112.8 14.70015
60.599979 113.10001 14.70015
52.199997 113.1 14.700151
60.599979 113.1 14.700151
60.599979 113.1 14.700151
52.199997 113.4 14.70015
60.599976 113.4 14.700149
60.899975 113.7 14.70015
61.199978 113.7 14.700146
52.199997 113.7 14.700148
61.199978 113.7 14.70015
61.499973 114 14.700148
61.799973 114 14.700147
61.199978 113.7 14.70015
52.199997 114 14.70015
61.799973 114 14.700147
52.199997 114 14.70015
62.099972 114.3 14.700148
62.399971 114.3 14.700148
62.69997 114.3 14.700148
61.799973 114 14.700147
52.499996 114.3 14.700148
62.69997 114.3 14.700148
62.999969 114.60001 14.700149
63.299969 114.60001 14.700148
62.69997 114.3 14.700148
52.499996 114.60001 14.70015
63.299973 114.60001 14.700151
52.499996 114.60001 14.70015
63.599968 114.90001 14.700153
63.299973 114.60001 14.700151
52.799999 114.90001 14.70015
63.599968 114.90001 14.700153
52.799999 114.90001 14.70015
63.899967 115.20001 14.70015
63.599968 114.90001 14.700153
53.099998 115.2 14.70015
63.899963 115.2 14.700148
53.099998 115.2 14.70015
64.199974 115.50001 14.700148
63.899963 115.2 14.700148
53.399994 115.5 14.70015
64.199974 115.50001 14.700148
53.399994 115.5 14.70015
64.499969 115.8 14.70015
64.199974 115.50001 14.700148
53.699997 115.8 14.700151
64.499969 115.8 14.70015
53.699997 115.8 14.700151
64.199966 115.8 14.700147
64.499969 115.8 14.70015
54 116.09999 14.700146
64.499969 116.09999 14.700148
54 116.09999 14.700146
56.999985 116.09999 14.700148
57.299988 116.1 14.700147
57.599991 116.1 14.700146
64.199966 116.09999 14.700145
64.499969 116.09999 14.700148
54.299995 116.39999 14.700144
56.699989 116.39999 14.700146
57.599991 116.39999 14.700148
64.499969 116.4 14.70015
54.299995 116.39999 14.700144
54.599995 116.39999 14.700146
56.099991 116.4 14.700147
56.39999 116.39999 14.700143
56.699989 116.39999 14.700146
57.599991 116.39999 14.700148
56.099991 116.4 14.700147
56.39999 116.39999 14.700143
56.699989 116.39999 14.700146
57.599991 116.39999 14.700148
57.899986 116.4 14.700148
64.199974 116.4 14.70015
64.499969 116.4 14.70015
54.899998 116.7 14.700151
55.799995 116.7 14.700152
57.899986 116.7 14.700152
64.499977 116.7 14.700151
54.899998 116.7 14.700151
55.199997 116.7 14.70015
55.499996 116.7 14.70015
55.799995 116.7 14.700152
57.599991 117 14.700151
55.199997 116.7 14.70015
55.499996 116.7 14.70015
55.799995 116.7 14.700152
57.899986 116.7 14.700152
64.199974 116.7 14.700148
64.499977 116.7 14.700151
57.599998 117 14.700148
64.499985 117 14.700152
57.299999 117.3 14.700148
93.000275 117.3 14.70015
93.300278 117.3 14.70015
57.599998 117 14.700148
57.899994 117 14.700151
64.499985 117 14.700152
57.299995 117.3 14.700148
64.499985 117.3 14.700148
93.000275 117.3 14.70015
93.300278 117.3 14.70015
55.199997 117.60001 14.700149
55.499996 117.60001 14.700148
56.999992 117.60001 14.70015
64.499985 117.3 14.700148
91.500252 117.60001 14.70015
91.800262 117.60001 14.700146
92.100258 117.60001 14.700146
92.400261 117.60001 14.70015
92.700272 117.60001 14.700149
93.600281 117.60001 14.700148
93.900284 117.60001 14.700147
57.299995 117.3 14.700148
57.599995 117.3 14.700147
64.199982 117.3 14.700149
64.499985 117.3 14.700148
92.100266 117.30001 15.000156
92.400269 117.30001 15.000156
92.700272 117.30001 15.000154
93.600281 117.30001 15.000153
55.199997 117.6 14.70015
55.499996 117.6 14.700151
56.999992 117.59999 14.70015
64.199982 117.6 14.70015
91.500252 117.60001 14.700151
93.900284 117.6 14.700154
55.799995 117.9 14.70015
56.699997 117.89999 14.700148
90.600243 117.89999 14.700145
90.900246 117.89999 14.700148
91.200249 117.89999 14.700148
94.200279 117.89999 14.700148
55.199997 117.6 14.70015
55.499996 117.6 14.700151
56.999992 117.59999 14.70015
64.199982 117.6 14.70015
90.60025 117.60001 15.000158
90.900253 117.60001 15.000156
91.200256 117.60001 15.000156
94.200287 117.60001 15.000156
55.199997 117.9 14.700148
55.799995 117.9 14.70015
56.699997 117.89999 14.700148
64.199974 117.90001 14.700148
90.600243 117.89999 14.700145
94.200279 117.89999 14.700148
55.199997 117.9 14.700148
56.099998 118.2 14.700148
56.399994 118.2 14.700146
89.700233 118.2 14.700148
90.000244 118.2 14.700148
90.300247 118.2 14.700147
94.500298 118.2 14.700148
55.199997 117.9 14.700148
55.499996 117.9 14.700147
55.799995 117.9 14.70015
56.699997 117.89999 14.700148
64.199974 117.90001 14.700148
90.000244 117.9 15.000149
90.30024 117.9 15.000149
94.50029 117.89999 15.000154
55.499996 118.2 14.700146
64.199982 118.2 14.700146
89.700233 118.19999 14.700144
94.50029 118.19999 14.700145
55.499996 118.2 14.700146
64.199982 118.2 14.700146
89.400238 118.5 14.70015
94.800293 118.5 14.70015
64.199982 118.2 14.700146
89.400238 118.19999 15.000151
55.799995 118.5 14.70015
63.899975 118.5 14.700149
89.400238 118.5 14.70015
94.800293 118.5 14.70015
63.899975 118.5 14.700149
89.100235 118.8 14.700143
95.100296 118.8 14.700144
63.899975 118.5 14.700149
89.100235 118.5 15.000155
55.799995 118.8 14.700148
63.599972 118.8 14.700149
89.100235 118.8 14.700143
95.100296 118.8 14.700144
55.799995 118.8 14.700148
88.800224 119.10001 14.700145
63.599972 118.8 14.700149
88.800224 118.8 15.000147
56.099998 119.10001 14.70015
63.599979 119.10001 14.70015
88.800224 119.10001 14.700149
95.100296 119.10001 14.700149
63.299976 119.1 14.70015
63.599979 119.10001 14.70015
56.099995 119.40001 14.700151
63.599976 119.4 14.700151
88.800224 119.4 14.700147
95.100296 119.39999 14.700149
56.099995 119.40001 14.700151
63.899975 119.70001 14.70015
64.199974 119.70001 14.700149
64.499977 119.70001 14.700148
64.799988 119.70001 14.700151
65.099991 119.70001 14.700151
65.399986 119.70001 14.70015
65.699997 119.70001 14.70015
66 119.70001 14.70015
66.299995 119.70001 14.700152
66.599998 119.70001 14.70015
63.299976 119.4 14.700152
63.599976 119.4 14.700151
64.499977 119.40001 15.000157
64.799988 119.40001 15.000156
65.099991 119.40001 15.000156
65.399994 119.40001 15.000156
65.699997 119.40001 15.000154
66 119.40001 15.000154
66.300003 119.40001 15.00016
66.599998 119.40001 15.000159
56.399994 119.7 14.700149
66.599998 119.7 14.70015
88.800224 119.7 14.700144
95.100288 119.7 14.700147
56.399994 119.7 14.700149
66.900009 120 14.70015
63.299976 119.7 14.70015
63.599976 119.7 14.70015
66.900009 119.7 15.000156
56.699997 120 14.70015
66.900009 120 14.70015
88.800232 120 14.700146
95.100296 120 14.700149
56.699997 120 14.70015
67.200012 120.3 14.70015
67.500015 120.3 14.70015
95.100296 120 14.700149
67.200012 120 15.000149
56.999996 120.3 14.700148
67.500015 120.3 14.70015
88.800224 120.3 14.700146
94.800293 120.3 14.700147
67.800018 120.6 14.700148
94.800293 120.3 14.700147
56.699997 120.3 15.000156
56.999992 120.59999 14.700148
67.800018 120.6 14.700148
88.800224 120.59999 14.700144
94.50029 120.59999 14.700146
56.999992 120.59999 14.700148
57.299995 120.59999 14.700147
68.100021 120.90001 14.700151
57.599998 120.9 14.700148
68.100021 120.90001 14.700151
88.800224 120.9 14.700145
94.50029 120.9 14.700149
57.599998 120.9 14.700148
68.400017 121.2 14.70015
94.50029 120.9 14.700149
57.299995 120.9 15.000154
57.899994 121.2 14.700149
68.400017 121.2 14.700153
88.800224 121.2 14.700148
94.200279 121.2 14.700149
57.899994 121.2 14.700149
94.200279 121.2 14.700149
57.599998 121.2 15.000153
58.199993 121.5 14.70015
68.400017 121.5 14.700148
88.800224 121.5 14.700148
93.900284 121.5 14.700152
58.199993 121.5 14.70015
68.700027 121.8 14.700148
93.900284 121.5 14.700152
57.899994 121.5 15.000154
58.5 121.8 14.700148
68.700035 121.8 14.700148
88.800232 121.8 14.700145
93.600288 121.8 14.700144
58.5 121.8 14.700148
58.799995 121.8 14.700147
62.099991 121.8 14.700148
62.399986 121.8 14.700148
62.699986 121.8 14.700147
88.200233 122.10001 14.70015
88.500237 122.10001 14.70015
93.600288 121.8 14.700144
62.099991 121.8 14.700148
62.399986 121.8 14.700148
62.699986 121.8 14.700147
88.500237 121.8 15.000153
59.099998 122.1 14.700149
61.799988 122.1 14.70015
62.999985 122.09999 14.700149
68.700035 122.1 14.70015
88.200226 122.09999 14.700148
93.300278 122.09999 14.700146
59.099998 122.1 14.700149
59.399994 122.1 14.700151
61.499989 122.1 14.70015
61.799988 122.1 14.70015
69.000031 122.4 14.700148
87.60022 122.4 14.700146
87.900223 122.4 14.700145
93.000275 122.09999 14.700146
93.300278 122.09999 14.700146
61.799988 122.1 14.70015
87.300224 122.09999 15.000153
87.60022 122.09999 15.000152
87.900223 122.09999 15.000152
59.699997 122.4 14.70015
61.199997 122.4 14.700147
62.999985 122.39999 14.700146
69.000031 122.4 14.700148
87.60022 122.4 14.700146
92.700279 122.39999 14.70015
59.699997 122.4 14.70015
59.999996 122.39999 14.700145
60.299995 122.39999 14.700148
60.599995 122.39999 14.700148
60.899994 122.39999 14.700148
