ply
format ascii 1.0
comment PCL generated
element vertex 1597
property float x
property float y
property float z
element camera 0
property float view_px
property float view_py
property float view_pz
property float x_axisx
property float x_axisy
property float x_axisz
property float y_axisx
property float y_axisy
property float y_axisz
property float z_axisx
property float z_axisy
property float z_axisz
property float focal
property float scalex
property float scaley
property float centerx
property float centery
property int viewportx
property int viewporty
property float k1
property float k2
end_header
39.379963 71.403809 42.921951
39.399395 71.234779 43.137642
39.392151 71.322418 43.026501
38.870087 71.792961 42.338654
38.833321 71.647255 42.444347
39.493835 71.569778 42.753368
40.282799 71.127869 43.273594
40.366722 71.845398 42.424858
40.521297 71.656113 42.600815
39.983395 71.632973 42.727005
39.930779 71.760788 42.580303
40.106667 71.785347 42.541645
40.73188 71.622223 42.566212
40.650501 71.48053 42.73772
39.71925 72.145622 42.186829
39.618977 72.001999 42.319027
39.843159 71.965965 42.357445
39.967209 71.857155 42.472069
39.557808 71.012222 43.468086
39.622944 71.376762 43.019234
39.816414 71.281952 43.178524
42.10421 72.301468 52.987061
39.948654 71.225708 43.257774
40.045341 71.333992 43.09906
39.85038 71.367836 43.064892
39.904861 71.463089 42.939178
41.997608 72.333771 52.685677
42.22744 72.269073 53.012459
39.752861 71.549767 42.820183
39.743011 71.698997 42.641449
39.826584 71.824936 42.507435
40.245003 71.246529 43.156208
40.720387 71.253784 42.906158
40.622746 70.816528 43.378502
36.245022 72.48555 53.194794
41.120872 71.593262 42.363304
41.250751 71.510719 42.345943
40.856129 71.664703 42.45874
41.352196 71.551453 42.238327
41.454769 71.49939 42.208447
40.909306 71.501373 42.593693
40.85667 71.582947 42.551052
40.801342 71.521797 42.636169
40.863518 71.389313 42.708481
41.011787 71.286713 42.691292
41.133377 71.268158 42.618713
41.1133 71.113129 42.749657
41.562019 71.492699 42.136417
41.72514 71.40873 42.095852
42.255516 72.110962 53.562435
40.903812 71.095955 42.91716
40.920071 71.232254 42.796215
41.347141 70.84343 42.782204
41.220295 71.197014 42.607697
41.891262 71.417786 41.985725
41.647507 71.556473 42.022331
40.55407 72.000076 42.192265
40.70295 71.7873 42.380501
40.438416 72.136116 42.080311
15.325167 20.923717 34.764572
38.348305 71.679459 42.070652
38.273502 71.782349 41.906559
38.398418 71.84285 42.018757
38.345379 71.954315 41.9002
39.575203 72.590324 50.536247
36.975452 71.948807 49.615135
36.798691 72.057144 49.761921
37.13752 72.11544 49.780903
38.740494 72.318207 49.637535
38.210197 71.806381 49.052135
38.39632 71.871559 49.020733
38.220528 71.768356 48.811817
39.322559 72.058258 48.739292
34.877876 71.582832 48.828228
34.90852 71.619217 48.54377
41.192684 72.01783 54.958794
38.326237 71.70163 48.086922
33.330307 71.571808 47.728821
33.14595 71.566849 47.702423
33.127739 71.586678 47.537491
31.949406 71.51915 46.961506
32.063011 71.518723 46.851219
31.768835 71.49382 47.004936
37.573357 71.550095 47.144905
37.345524 71.590424 47.072037
37.454979 71.521492 47.398186
37.077072 71.683853 46.908615
37.050594 71.596245 47.251114
37.15065 71.742462 46.639191
37.348843 71.656387 46.813152
43.71389 71.176392 46.626965
43.450336 71.184456 46.847267
43.685528 71.099792 46.877525
43.375423 71.306236 46.562492
43.624638 71.280975 46.355534
43.780689 71.304321 46.092598
43.564018 71.34185 46.190868
38.394539 72.707138 45.909184
38.489452 72.836639 45.854504
38.400841 72.795174 45.759644
38.250111 72.62793 45.746315
38.263016 72.501984 45.997555
38.831722 72.750336 46.293804
38.452816 72.642899 46.094849
38.356441 72.508904 46.148758
38.445713 72.505882 46.278854
38.125591 72.439224 45.823673
38.110012 72.359428 45.954468
44.162903 71.237434 46.069054
44.376125 71.270447 45.762917
38.232349 72.777588 45.404423
38.342751 72.821388 45.566807
38.171165 72.645531 45.519596
42.350956 72.199829 52.896576
42.146938 72.21524 52.677204
44.401505 70.971344 53.662956
44.484772 70.99939 53.802368
38.756615 73.221153 45.268608
41.025902 72.930756 45.358418
41.216106 72.790909 45.5238
32.720531 72.01281 44.428036
38.40683 73.330338 44.534451
38.489784 73.482986 44.345261
38.262222 73.351013 44.277309
41.643497 71.895973 55.060623
41.784199 71.96524 54.641495
31.72057 72.239563 52.121574
15.22961 20.762522 35.811554
33.154827 71.231316 51.25898
32.964081 71.131584 51.327389
32.988831 71.261978 51.45636
43.177567 71.78582 45.156384
43.010433 71.881096 45.215302
43.140316 71.779259 45.263008
43.114799 71.883255 44.975166
43.252552 71.63987 45.529087
42.999741 71.760063 45.641438
43.208961 71.612022 45.735558
34.128883 71.593811 51.131046
15.402832 20.99818 34.379623
15.51947 20.967766 34.476776
49.046925 71.046326 42.762878
43.033657 71.254456 52.951031
43.127022 71.438522 53.054142
43.242031 71.22287 53.072304
42.891224 71.450645 52.911644
42.670506 71.779602 52.863686
42.67186 71.9422 52.944794
42.465694 71.28521 52.539215
42.672665 71.106247 52.6311
42.596798 71.016937 52.485405
42.765606 71.268105 52.77177
43.00745 71.051682 52.864567
32.159435 71.687698 52.006355
32.287346 71.533539 51.954708
32.421181 71.664185 51.926819
32.410378 71.479446 51.897293
32.584049 71.833672 51.897339
32.623108 71.638702 51.852394
32.52438 71.521469 51.864311
32.615047 71.5009 51.82143
32.271549 71.896347 43.889603
32.398849 71.969177 43.926197
32.530327 72.061729 43.981682
38.34267 73.507294 44.105522
38.160492 72.638962 50.017525
32.614658 71.166458 51.65831
33.24633 71.450874 51.459805
32.986984 71.462288 51.614555
41.925198 72.006409 54.327114
42.41534 71.906242 54.117111
41.342426 71.931519 55.246357
41.291649 71.91124 55.424023
31.844803 72.345718 52.304466
32.100925 72.332634 52.250126
30.105604 72.074554 52.61512
29.710426 71.952225 52.666885
15.191612 21.022203 34.305977
14.989979 21.08658 34.095768
15.64868 20.951643 34.53582
39.333862 72.833023 50.709755
34.582527 72.62532 51.500046
38.438229 72.772148 51.734062
37.359501 72.707397 51.954819
15.81596 20.92585 34.645168
37.43404 72.636948 52.287369
37.278931 72.64888 52.188423
32.986927 72.454529 52.156754
33.139675 72.444351 52.046196
42.690697 71.98764 53.41394
42.476982 72.144066 53.135094
42.335873 72.222687 53.011108
15.950632 20.856846 34.888077
16.079245 20.758282 35.360752
39.397507 72.534721 52.948715
37.083584 72.744041 50.212139
37.000164 72.835175 50.307014
37.155041 72.849136 50.316925
37.010746 72.583794 50.114326
37.315609 72.599319 50.105488
37.25053 71.942238 49.597881
36.852608 72.237381 49.916878
37.146992 72.374313 49.975471
37.435871 72.23642 49.868603
37.46973 72.041344 49.703964
37.778378 72.19973 49.816475
37.746674 72.048737 49.68589
37.618099 72.147644 49.795509
37.611584 71.940971 49.590393
37.452824 71.910423 49.560226
36.830193 72.435768 50.057457
38.554211 72.22934 49.579605
38.571152 72.3974 49.764336
38.301445 72.260605 49.708897
38.38028 72.109283 49.518524
38.54361 72.114555 49.434471
38.419586 72.016327 49.362423
39.57954 72.314278 50.120346
39.589092 72.186829 49.871616
39.402435 72.429901 50.100189
39.342735 72.227669 49.656689
33.688057 71.49218 48.618076
33.91016 71.500137 48.767117
33.579506 71.480713 48.847065
39.388866 72.071701 48.490517
43.906338 70.772263 47.846588
43.872612 70.79126 47.769196
43.767731 70.806953 47.84922
44.027157 70.748062 47.900276
43.869373 70.764069 48.011196
44.106232 70.712418 48.086624
44.452034 70.655632 48.169739
44.280544 70.642761 48.350647
44.37949 70.611099 48.490021
38.138874 71.632339 48.06805
38.070091 71.600693 47.931084
37.958832 71.561264 47.73724
37.998318 71.553909 47.536224
43.852314 70.904724 47.359875
43.687462 70.954117 47.316902
43.7019 70.895805 47.513237
43.866364 70.963455 47.171204
43.184021 71.1147 47.332638
43.300892 71.108765 47.20129
43.15519 71.171486 47.193516
35.8382 72.460403 53.301342
44.113152 71.142693 46.461926
43.951405 71.200096 46.361023
44.000122 71.124588 46.584797
44.231346 71.096992 46.574402
44.295254 71.15802 46.334377
38.324486 71.8843 47.137909
38.498165 72.009155 47.269623
38.412682 72.093536 46.925747
32.705894 71.589645 46.522087
32.868286 71.632385 46.688515
32.833652 71.722366 45.411366
38.117687 72.758972 45.123959
38.100216 72.852234 44.876835
38.268124 73.036659 44.88768
38.976387 73.280952 45.235653
38.741535 73.286194 45.069355
38.294518 73.5681 43.899891
39.128052 73.191483 45.511349
33.236385 72.153572 51.79665
33.268444 72.382179 51.925842
33.358994 72.34491 51.849369
42.811337 72.01944 45.214226
35.367722 72.565262 50.915451
35.630898 72.476379 50.662151
43.085312 71.777649 45.394974
43.283344 71.683044 45.282124
34.375603 71.685951 50.992416
36.5415 72.629509 50.266277
36.346291 72.575729 50.314308
38.359509 72.499001 49.88559
37.754517 72.346138 49.916733
37.940796 72.300934 49.851543
37.638294 72.249474 49.871876
49.135368 70.950523 42.880093
43.463081 71.01149 53.146076
43.194244 71.077286 53.000504
32.963333 71.653374 51.720325
33.166344 71.65313 51.637959
33.071556 71.847221 51.747993
33.284168 71.844597 51.680946
42.13818 71.773056 54.984695
42.145782 71.883705 54.56749
34.002556 71.977051 51.518501
34.077003 71.892036 51.46244
34.103119 71.974777 51.477943
34.497627 71.832413 51.043114
34.355518 71.81778 51.200409
34.491688 72.032547 51.208855
34.675175 72.030197 51.045609
34.720581 71.886803 50.849312
34.979614 71.989716 50.714012
34.830753 71.832115 50.643394
34.891308 72.11525 50.918434
34.499321 71.718887 50.861912
34.636936 71.727432 50.680092
35.942612 72.510468 50.486404
36.773602 72.617752 50.174263
36.590126 72.47924 50.147953
36.41737 72.502823 50.228138
41.15667 71.923042 55.555557
40.459106 71.996948 55.811287
40.970646 71.943794 55.685013
40.974083 71.930588 55.776752
41.367207 71.876259 55.530468
16.584915 20.665508 35.740891
16.713461 20.726074 35.501411
16.846046 20.698952 35.66386
38.103756 72.868233 50.230682
38.090179 72.789589 50.146786
37.959595 72.849129 50.270836
40.744141 72.408066 51.717709
40.883076 72.337448 51.773609
40.731846 72.284874 51.559452
40.65242 72.430206 51.645336
41.029839 72.145348 51.729683
40.919033 71.969681 51.437634
40.564156 72.431793 51.562553
40.620205 72.133385 51.254559
40.366463 72.267555 51.114159
33.083698 71.09108 50.899651
29.452938 71.878105 52.757561
36.171616 72.428864 53.511887
38.383656 73.733604 42.274963
48.505791 71.334091 42.23061
48.371586 71.446487 42.341003
48.260174 71.500427 42.282055
16.131926 20.61018 36.248856
48.153137 71.521179 42.214825
39.909794 72.540207 50.918266
34.761429 71.714966 50.462177
35.030586 71.866646 50.481808
35.245998 72.062256 50.565636
35.414833 72.029205 50.394512
35.266018 71.934204 50.377861
35.484669 72.16011 50.494125
36.059643 72.245605 50.201916
35.782024 72.193054 50.320957
35.813644 72.356094 50.44413
36.911629 72.69838 50.189186
37.316757 72.786865 50.242462
34.606087 71.572784 50.066936
34.863632 71.637146 49.991478
34.787186 71.657272 50.221764
36.600056 72.30899 50.030369
16.881905 20.574566 36.191341
17.006384 20.630877 35.947075
17.117754 20.62401 36.038773
36.583874 72.139587 49.891151
36.234234 72.451836 50.277794
36.376892 72.364601 50.1502
36.355644 72.198799 50.023239
37.790146 71.902512 49.503113
37.983345 72.018684 49.597576
37.977139 71.908295 49.460938
37.898087 71.836441 49.361679
37.638916 72.520012 50.033798
37.583054 72.349289 49.937954
37.427364 72.414452 49.984959
37.570271 72.741463 50.202019
37.454876 72.851608 50.321098
38.132423 72.404434 49.86887
37.606331 72.850296 50.34
37.765919 72.827972 50.289974
37.87532 72.699409 50.127739
37.920795 72.485016 49.969238
38.088741 72.247398 49.774895
37.944389 72.152588 49.740837
17.17947 20.583273 36.178261
17.162848 20.544924 36.31691
38.105305 72.144112 49.684525
16.870773 20.639584 35.858772
38.190628 72.073441 49.575348
38.24992 71.984077 49.428688
38.102192 71.962387 49.483116
38.451221 71.950127 49.197491
38.292175 71.915421 49.280392
39.78413 71.975929 49.08289
39.546867 72.049446 49.186054
39.711449 72.007797 49.358349
38.092548 71.867966 49.32209
38.203098 71.843422 49.194748
38.013424 71.736908 48.968014
38.087795 71.795677 49.146652
37.763023 71.683884 48.949692
37.899231 71.765526 49.174973
37.514503 71.665085 48.995575
37.556683 71.720268 49.187889
37.695087 71.715088 49.128773
39.429268 72.114716 49.389446
39.225002 72.143929 49.299847
39.667671 72.064911 49.620518
33.881626 71.478348 49.125229
34.249454 71.522064 48.918335
33.51041 71.488342 48.662491
39.492599 72.046707 48.943687
39.247425 72.069473 48.929077
39.315655 72.094208 49.141617
39.517639 72.04982 48.708942
34.599567 71.634109 48.318371
38.47271 71.864281 48.839031
38.685215 72.002289 49.05912
38.389954 71.797508 48.647015
38.653316 71.904457 48.648304
38.423973 71.781929 48.437988
39.988487 71.942818 48.823849
39.715225 72.012543 48.798615
39.677841 72.046616 48.559853
38.627159 71.867279 48.36375
38.760406 71.932899 48.440105
38.820976 71.969673 48.18969
39.308022 72.110435 48.223881
39.114124 72.093826 48.11956
39.016647 72.118744 47.914745
38.790459 72.034241 47.830681
38.636135 71.90033 47.954235
39.318806 72.197716 47.898842
39.109318 72.194977 47.791168
38.969364 72.188316 47.652431
43.550114 70.850243 48.078156
43.884636 70.730873 48.311981
43.486843 70.980316 47.430054
43.543491 71.056343 47.130512
43.357052 71.054611 47.309128
43.28418 71.040916 47.461334
43.328083 70.97686 47.708206
44.111557 70.940842 47.130463
44.194576 70.963303 47.02932
43.80497 71.033302 46.990719
38.309235 72.150131 46.648834
38.464664 72.281296 46.670208
38.61554 72.334381 46.807365
38.617531 72.248352 46.989738
38.635662 72.504349 46.512207
38.35981 72.310997 46.454334
38.211811 72.001938 46.747597
38.231194 71.933426 46.88797
38.977638 72.65464 46.578972
38.266525 72.372513 46.213848
38.148571 72.335495 46.075428
38.113678 72.239052 46.186275
38.782112 72.364517 46.982109
38.804729 72.480942 46.762482
43.699368 71.375999 45.848042
44.214596 71.311989 45.597561
43.037838 71.659027 45.911942
42.73703 71.788239 46.069229
42.992847 71.617592 46.133751
42.836807 71.805466 45.819607
38.178253 73.02861 44.709091
38.342403 73.176109 44.735046
38.604046 73.321068 44.815109
38.596725 73.24678 45.012531
37.869747 73.167274 43.790421
37.797241 73.162903 43.645813
38.431503 73.629196 43.979668
38.398441 73.662613 43.843792
38.376255 73.734047 43.060246
38.362617 73.727493 43.281883
38.382198 73.721161 43.445454
37.652653 73.215179 43.110077
37.815575 73.262749 43.410187
37.858372 73.347031 43.14896
37.557514 73.11161 43.343384
37.80373 73.34639 42.613239
37.577133 73.228127 42.73769
37.682552 73.259941 42.86417
37.832424 73.350647 42.935581
37.965775 73.36438 42.133984
38.099228 73.461044 42.116695
38.021782 73.46347 42.327484
37.575237 73.240158 42.581062
38.406155 73.75795 42.754982
37.583672 73.031425 43.582375
37.520237 73.186127 42.916191
37.407814 73.179985 42.78072
38.605446 73.443329 44.562611
37.95195 72.894203 44.452835
37.977131 72.974548 44.370102
37.877621 72.852264 44.370796
37.862087 72.928932 44.210876
37.986336 73.108871 44.160526
37.99136 73.233002 43.939873
37.8489 73.076439 43.922379
37.809528 72.966049 44.038635
38.022362 72.910179 44.582626
37.926281 72.839294 44.492657
37.920116 72.784782 44.580204
37.957233 72.754807 44.721363
37.97374 72.697731 44.864151
38.002083 72.667114 45.000317
38.003555 72.592033 45.166084
38.109558 72.662331 45.317856
38.036545 72.509117 45.439682
38.060047 72.450394 45.63459
37.993782 72.517029 45.29982
38.041611 72.374245 45.755836
38.022182 72.313744 45.851807
38.175404 72.202499 46.348495
38.224766 72.155289 46.50201
38.181126 72.060516 46.595688
16.709747 20.470175 36.894924
16.310127 20.441879 37.217701
16.021658 20.498857 37.006481
42.583469 72.067673 52.978558
42.679123 72.027725 53.042122
44.632015 70.782906 53.702587
44.638168 70.913376 53.842922
44.764908 70.837326 53.859577
44.195351 70.905113 53.50782
43.765671 71.176659 53.363914
15.405279 20.603275 36.734322
37.944344 72.897392 50.451996
37.823154 72.897583 50.520538
42.048611 72.545898 45.197861
42.27758 72.468918 45.027992
43.53035 71.565132 45.165733
42.820145 71.938248 45.436329
43.482487 71.415642 46.0173
37.335285 72.904388 50.432014
43.334641 71.71682 45.042324
17.002245 20.384245 37.382545
17.321959 20.442413 37.061069
17.365868 20.387999 37.404415
43.2509 70.8377 52.93837
43.407795 71.312904 53.193817
43.456066 70.796097 53.081917
43.425056 70.678352 53.003853
43.604843 70.795105 53.177151
43.572952 70.654099 53.103897
43.747223 70.655632 53.214375
43.722095 70.477615 53.111824
43.893223 70.500656 53.2379
43.158653 70.649529 52.717617
43.229221 70.478035 52.568581
44.047825 70.324272 53.233299
44.011555 70.218063 53.149445
43.932812 70.279999 53.146439
44.255241 70.346588 53.337822
44.431526 70.360428 53.40995
35.516125 72.748604 51.127552
34.414021 72.611183 51.621555
44.093819 70.521683 53.34322
44.299686 70.480576 53.414948
43.914825 70.649857 53.303612
44.047455 70.714294 53.383938
43.816982 70.847412 53.303612
14.968544 20.622171 36.948315
44.226551 70.634438 53.437016
44.969269 70.70134 53.862038
44.499901 70.543625 53.511707
44.898048 70.587921 53.70892
44.758167 70.543251 53.619343
43.875984 70.375351 53.168106
45.137524 70.488724 53.751827
44.969711 70.411568 53.630154
44.778038 70.387878 53.544041
44.668549 70.254524 53.430283
45.434826 70.37458 53.792084
45.141327 70.689545 53.990898
44.993401 70.196991 53.50864
45.247494 70.269012 53.645401
45.628014 70.106636 53.674126
46.435318 70.170219 54.107853
15.622568 20.50272 37.250263
37.060532 72.609734 52.34948
37.020905 72.649658 52.201038
43.154346 71.674789 53.942085
42.936428 71.67717 54.28904
45.488876 69.726845 53.297356
17.105711 20.509354 36.538017
17.17716 20.471622 36.78614
43.162956 71.769455 53.498329
42.843838 71.947159 53.190189
42.725174 72.015358 53.15593
43.295418 70.318954 51.834885
43.048691 70.448395 51.986053
43.532253 70.24617 51.673435
42.058174 70.914619 50.986382
42.251415 70.82695 51.035728
42.214027 70.875443 50.785641
39.371593 72.633255 50.363567
42.972824 71.884781 53.305511
39.454037 72.470947 50.217407
39.645306 72.423752 50.379879
40.097492 71.99308 50.282257
40.206604 71.926796 50.301346
40.112808 71.931526 50.132168
39.845123 72.090927 50.057396
39.99337 72.056351 50.24263
40.015053 71.929878 49.901173
39.807625 72.038712 49.83287
39.927834 71.939026 49.698524
40.759327 71.616653 49.133301
40.50362 71.710373 49.137672
40.58073 71.653564 49.28714
40.007694 72.009903 48.452873
40.213383 71.90226 48.687683
39.843971 72.004684 48.659775
39.614441 72.113419 48.239937
44.139359 70.655502 48.452755
44.168152 70.673721 48.277054
42.34576 71.298035 48.036507
42.119427 71.464844 47.836208
42.051926 71.410889 48.093941
42.713718 71.098213 48.326626
42.789425 71.131485 47.961357
42.581516 71.187675 48.075287
42.380207 71.220253 48.308819
42.50108 71.196854 48.184975
38.612316 71.93618 47.746925
38.444332 71.848518 47.583977
38.582397 72.160843 47.113132
38.278454 71.912582 46.993793
38.702164 72.074608 47.518578
38.340973 71.816193 47.348827
38.251251 71.754562 47.238365
38.233509 71.698509 47.361004
38.232334 71.78006 47.133881
38.238056 71.829048 47.058224
16.120321 20.438723 37.336185
15.898491 20.461584 37.319923
15.153193 20.55121 37.310486
15.553038 20.464176 37.609535
38.683033 72.168282 47.261192
44.071609 70.891937 47.309769
44.428787 70.904518 47.176254
43.371716 71.389267 46.28373
43.240715 71.40065 46.429226
43.274132 71.17627 47.048779
42.938324 71.241882 47.3041
43.081913 71.244781 47.087383
42.922485 71.337112 47.056927
43.11441 71.325104 46.837601
42.781361 71.475563 46.891724
39.528233 72.685593 46.774624
39.767307 72.686119 46.762589
39.670326 72.757172 46.612255
39.256393 72.672386 46.721413
39.221897 72.771935 46.501259
39.039608 72.510796 46.924969
42.908669 71.558182 46.4613
42.796017 71.589882 46.551647
42.905506 71.491692 46.659737
14.853846 20.555393 37.578056
39.089962 72.831306 46.31382
39.196011 72.921799 46.173306
39.360645 72.876152 46.315361
42.878693 71.635849 46.278702
43.102314 71.502136 46.318573
43.211338 71.515259 46.094292
43.109272 71.426147 46.54546
43.282429 71.533493 45.892921
43.355522 70.590012 52.86834
43.039116 70.601097 52.49984
42.961494 70.748047 52.623158
43.824348 70.303558 53.068436
43.67123 70.342796 52.945557
43.531075 70.521263 52.98185
43.946384 70.196411 53.071564
43.585842 71.427597 54.201149
43.702141 71.450958 53.843708
43.376534 71.638382 53.69978
42.502594 71.708763 54.778332
42.844765 71.632774 54.596287
48.644745 70.833107 44.504948
39.260117 73.086624 45.776672
42.115063 72.383362 45.458611
41.758911 72.474571 45.692299
42.104294 72.274239 45.739059
42.524986 72.449425 44.623386
49.034988 70.84716 43.803154
48.810806 70.952766 43.968315
49.019039 70.947044 43.530449
49.057209 70.975975 43.235542
48.870724 71.109322 43.353989
49.01334 71.06163 42.991798
42.453743 71.875023 52.753891
42.273846 71.893402 52.630363
41.659607 71.903175 52.162785
41.959351 71.815796 52.371368
41.839455 71.689751 52.216377
41.416351 72.120926 52.076096
41.613586 72.145088 52.248264
41.518642 71.797432 51.982662
41.657776 71.633781 52.00209
41.482517 71.701218 51.881065
42.764587 71.975006 53.071377
41.846855 72.080391 52.389717
42.107689 71.95356 52.532101
42.035896 71.601936 52.347221
42.788174 70.792984 52.459946
42.857937 70.86956 52.639915
42.741749 70.956367 52.595436
43.004654 70.858528 52.758739
42.834633 71.016121 52.71862
42.244621 71.428543 52.437378
42.421112 71.091034 52.353672
42.159328 71.527512 52.420479
41.444584 71.933838 51.99197
41.374004 71.828613 51.852776
42.10146 71.430061 52.310242
41.90889 71.501068 52.162239
48.142693 71.546722 42.435089
48.269478 71.509583 42.393951
48.188141 71.539673 42.323032
48.357136 71.45343 42.603092
48.312206 71.431412 42.959732
48.537354 71.365799 42.867142
42.253742 71.253807 52.31884
42.052929 71.283188 52.117973
48.820351 71.210869 42.519413
38.529308 73.815651 42.577446
38.48093 73.792366 42.375683
47.952255 71.582726 42.365162
48.089737 71.561096 42.304146
47.787636 71.593498 42.211468
16.411224 20.384342 37.606415
16.869059 20.304092 37.980709
16.512062 20.299252 38.242893
41.414387 71.393265 51.338898
41.242363 71.44352 51.140965
41.205563 71.539291 51.29377
40.778217 71.752228 50.921352
40.782791 71.881416 51.145737
40.937008 71.689713 51.103943
41.08913 71.552185 51.115181
41.144173 71.464859 50.979092
40.964462 71.772163 51.273911
41.062912 71.644554 51.24559
42.361877 70.770493 51.237274
42.507698 70.742668 50.963394
40.969948 71.585617 50.931625
41.058098 71.474548 50.737518
15.1646 20.487642 37.813301
41.953152 70.983978 50.790844
41.851265 71.02301 50.970123
40.128551 72.403458 51.003654
41.270584 72.021194 51.876488
41.181122 71.884506 51.672802
40.283813 72.22493 50.939674
42.548698 70.895599 52.281593
42.291084 71.02433 52.099159
42.547207 70.76326 52.018936
42.709663 70.722519 52.228737
42.008804 71.12928 51.834183
42.225658 70.948318 51.864521
42.352543 70.875717 51.93605
41.141384 71.708939 51.442528
41.375851 71.651848 51.695908
41.31506 71.545517 51.473637
41.517048 71.617432 51.84642
41.577957 71.504036 51.783741
41.684837 71.298813 51.609585
41.467228 71.471756 51.584549
41.807709 71.386841 51.926208
40.142563 72.228683 50.750069
40.005447 72.408279 50.835022
39.832848 72.452103 50.669861
16.947153 20.33716 37.696941
40.08968 72.087318 50.44418
39.984692 72.26123 50.584988
40.495827 72.006721 50.897408
44.932678 70.12764 50.821617
40.837418 71.633438 50.745625
40.668285 71.766609 50.720669
42.269791 70.896301 50.54319
42.017944 70.993118 50.528027
39.98357 72.560081 51.076691
40.080635 72.540489 51.193256
41.090744 71.40168 50.049343
41.009445 71.447937 50.278294
41.321278 71.303192 50.327885
40.132534 71.832291 49.744415
40.075207 71.852119 49.549812
40.320423 72.00267 50.629353
39.8764 72.284775 50.47364
39.835854 72.206993 50.287067
40.272892 71.787247 49.92025
39.870579 71.948868 49.516373
39.969948 71.899681 49.333492
15.89563 20.419779 37.663876
16.008799 20.428581 37.488995
40.070129 71.876343 49.114365
40.370438 71.873169 50.438049
40.732033 71.632385 50.431992
40.378426 71.789116 50.20388
40.514542 71.848915 50.621468
40.852516 71.514839 50.124176
16.218216 20.265863 38.758362
40.861622 71.498856 49.878742
40.266655 71.762192 49.749386
40.595242 71.633842 49.998161
44.913742 70.360367 49.735176
44.799225 70.399483 49.612644
44.700157 70.41449 49.708046
45.061386 70.290527 49.99382
45.472652 70.212257 49.915375
45.204395 70.296883 49.723579
45.459335 70.25396 49.639111
45.049145 70.346672 49.581642
44.908825 70.377937 49.571045
40.241016 71.771881 49.622952
40.424828 71.692711 49.697166
44.820572 70.403496 49.513603
44.952473 70.387924 49.403851
44.792351 70.416084 49.451611
44.545547 70.493225 49.27388
44.646194 70.445183 49.520531
44.75042 70.4356 49.364422
40.309963 71.759514 49.356728
40.632698 71.610054 49.484985
40.883133 71.527893 49.372154
40.710999 71.597198 49.319424
40.871025 71.503548 49.623276
41.121071 71.403801 49.755222
41.084999 71.43779 49.520523
41.013206 71.516724 49.189186
41.014126 71.561058 48.996571
41.13726 71.448029 49.340816
41.288315 71.447182 49.110233
40.672817 71.580551 49.736057
41.435715 71.329514 49.52021
43.105934 70.999969 48.068024
43.528839 70.926025 47.592628
43.61203 70.874725 47.733166
43.816238 70.827393 47.678669
15.781315 20.453421 37.47501
42.620296 71.365295 47.419567
42.68261 71.424805 47.166195
42.27758 71.588852 47.306934
42.755596 71.904907 45.666203
43.278534 70.887711 48.555534
42.578972 71.237465 47.877476
42.774834 71.215279 47.649414
43.083481 71.106438 47.537846
42.575298 71.61512 46.83041
42.708782 71.59758 46.670895
42.530537 71.566475 47.018291
43.011669 71.081085 47.783119
43.946747 70.847794 47.514782
44.008247 70.785507 47.722889
39.280132 72.297729 47.618473
39.112995 72.291519 47.530052
39.152596 72.242889 47.69799
38.935417 72.306953 47.283909
39.260654 72.370361 47.399662
39.208111 72.456993 47.163891
42.653713 71.720757 46.416519
42.575542 71.838295 46.216911
42.402248 71.920364 46.277485
42.514359 71.91114 46.113167
42.657349 71.917755 45.819969
42.498009 71.979248 45.935307
42.465206 72.103355 45.624405
42.256603 72.12384 45.923359
39.371811 72.982399 46.05275
39.588913 72.984444 46.059391
43.22382 70.400703 52.3265
42.924393 70.587677 52.268665
40.965149 72.819473 45.640038
40.957424 72.74691 45.81287
41.272831 72.636307 45.809486
40.279659 73.059769 45.513893
40.479691 73.125 45.212357
40.790497 73.04747 45.225029
42.379295 72.261314 45.355644
41.309853 73.18235 44.290779
41.008179 73.232544 44.452263
48.560345 70.985863 44.221954
48.884102 70.998558 43.727322
48.875145 71.085121 43.495327
48.903263 71.172707 42.845707
48.925537 71.158798 42.685917
48.835247 71.195801 43.018692
48.651443 71.326103 42.684555
48.814362 71.238754 42.724136
43.318977 71.465309 54.499542
43.076637 71.457855 54.910538
42.385536 70.795105 51.732903
41.384186 71.314926 50.976551
41.923931 71.055695 51.482948
41.646099 71.200172 51.274483
42.139343 70.95182 51.679424
42.19318 70.866951 51.446499
16.983093 20.264669 38.315735
42.136055 70.872253 51.192619
42.007328 70.950867 51.29512
41.668224 71.138504 51.02182
16.819456 20.240185 38.657913
17.276445 20.25618 38.567684
41.839108 71.046173 51.199066
41.973293 70.953796 51.131542
42.759747 70.592728 51.931885
42.788967 70.613823 52.089699
42.623112 70.654846 51.808201
43.138184 70.407333 51.63208
43.06942 70.490417 51.266399
42.862545 70.530983 51.508301
42.836296 70.53492 51.744987
43.76638 70.119331 51.872162
42.669357 70.637024 51.29567
42.84473 70.618179 51.015305
42.629692 70.63768 51.595711
42.442108 70.732399 51.465916
42.467796 70.811249 50.648643
43.362774 70.354462 51.413639
44.699257 70.127167 50.981445
44.576721 70.231598 50.747738
44.296947 70.285347 50.785828
44.419773 70.195297 50.966358
44.128288 70.265953 50.961784
41.293243 71.325623 50.638206
41.078133 71.428879 50.479126
41.649879 71.145874 50.684738
42.209824 70.940468 50.414696
42.873436 70.784172 50.220444
42.737064 70.768433 50.468792
42.985752 70.686653 50.523285
41.750725 71.135284 50.236732
41.414715 71.285217 49.955627
43.330521 70.629333 50.377563
43.65374 70.552277 50.3755
43.640911 70.59742 50.16954
42.806103 71.547935 54.972614
44.658089 70.39447 49.936562
42.681625 71.46405 55.430252
42.91642 71.46022 55.135342
44.284325 70.534904 49.503304
44.480305 70.467751 49.716782
44.337086 70.483604 49.872856
44.261173 70.51915 49.735401
41.707226 71.307755 49.137299
40.30571 71.817284 48.963188
45.254475 70.318329 49.470642
45.219158 70.378952 49.1082
44.818974 70.445847 49.16996
44.583229 70.512573 49.023407
44.201103 70.594803 49.052746
40.574242 71.724892 48.945713
40.285652 71.919792 48.528645
40.497921 71.818802 48.674225
44.868439 70.482971 48.848984
40.817852 71.671951 48.824642
41.205967 71.56456 48.734005
42.107254 71.664505 55.445808
42.187458 71.551498 55.823296
42.355125 71.490906 55.812485
39.899391 72.117706 48.136898
39.731678 72.203857 47.91251
40.0228 72.158401 47.945351
40.146229 72.072105 48.138077
44.259869 70.738449 47.845528
44.736492 70.743645 47.66898
44.240364 70.81485 47.53582
41.652573 71.782608 55.575722
41.678005 71.728889 55.843021
41.848328 71.670937 55.838539
42.416103 71.379684 47.67519
46.645302 70.722313 46.87759
46.794907 70.553238 47.222912
44.603794 70.99588 46.830502
44.457306 71.058838 46.645863
42.522217 71.704727 46.673889
42.346848 71.849541 46.554462
44.60112 71.192879 46.074287
44.579109 71.135078 46.332024
42.180779 72.082733 46.168243
42.368729 72.008392 46.081081
43.087788 71.365593 55.217102
48.175831 71.025078 44.508381
47.820946 71.015053 44.875168
16.518442 20.733644 35.407169
39.74963 72.93528 46.144768
39.961838 72.839378 46.299492
39.669075 72.84626 46.387192
40.319511 73.270035 44.896912
40.693905 72.971375 45.470249
42.506298 72.33078 44.96537
42.280777 72.625618 44.635128
42.415142 72.458984 44.812897
40.707115 73.349411 44.259941
40.592381 73.297928 44.592056
17.257929 20.269867 38.298275
40.331493 73.445145 44.262711
41.047661 73.298882 44.032024
40.561237 73.448502 43.954075
42.254974 72.392365 45.238991
42.21524 72.59156 44.846962
17.14753 20.221992 38.917572
17.371695 20.479961 36.81279
46.829502 71.042511 45.764183
48.845806 71.074081 43.595955
47.937935 71.50042 43.059528
47.967968 71.553543 42.63258
48.148075 71.497528 42.814594
48.731247 71.274414 42.890003
48.883984 71.13501 43.161526
48.743038 71.163315 43.485481
48.609062 71.278702 43.195053
48.258228 71.408569 43.208267
47.934566 71.227669 44.16774
47.84642 71.179199 44.385937
48.280739 71.152969 44.089882
48.544395 71.099884 43.956528
48.548622 71.240524 43.526417
48.68174 71.120354 43.721138
48.364864 71.240059 43.756962
48.075329 71.284103 43.894028
48.069996 71.366249 43.622372
48.326363 71.339066 43.449432
47.702156 71.381607 43.803158
47.760143 71.144966 44.557232
48.089272 71.426216 43.35973
47.836426 71.452568 43.436485
17.14489 20.281612 38.118858
47.709435 71.608154 42.423126
14.026978 20.096884 42.479557
42.521503 71.430191 55.800117
42.687145 71.369492 55.786926
42.807259 71.30854 55.824459
42.960316 71.244102 55.824963
43.111565 71.180466 55.824547
43.287022 71.178856 55.572979
41.338509 71.851685 55.734627
42.018356 71.611656 55.831963
43.45887 71.618347 53.536362
43.305672 71.700821 53.353905
44.769852 70.281662 50.382809
43.733734 70.36277 50.973541
44.023392 70.373329 50.703495
43.455177 71.262886 55.02655
44.146641 71.226852 53.873455
44.132721 71.090561 54.532795
44.375443 71.07972 54.003654
43.951187 71.348755 53.688366
44.100708 71.267326 53.691143
44.195118 71.213448 53.712967
43.411667 70.398964 51.164066
42.455559 70.87709 50.342903
42.108543 71.00415 50.250065
42.76635 70.706055 50.713844
44.270866 71.167633 53.749462
44.339931 71.11985 53.820839
45.320015 70.087418 50.65049
44.335598 70.344543 50.552856
43.223618 70.545349 50.830563
44.274147 70.170563 51.130943
43.658249 70.491371 50.602043
43.9935 70.475204 50.341171
42.605862 70.78933 50.543198
43.286797 70.731583 49.904495
42.259121 71.012596 49.922188
45.763809 70.107018 50.149834
44.169079 70.838745 55.456577
44.688194 70.635071 55.393173
45.631504 70.256081 49.370266
45.025795 70.71936 54.453697
44.708694 70.897568 54.176208
44.749142 70.558762 48.492142
44.491867 70.560516 48.767963
45.346272 70.472244 54.973511
45.500324 70.530533 54.469044
12.120966 20.345375 42.858791
45.371147 70.618103 54.259163
44.983444 70.767319 54.08567
45.263947 70.665146 54.174133
45.147511 70.708801 54.134285
45.564636 70.544304 54.212921
46.585129 70.457268 47.616722
45.803093 70.436813 54.252289
46.233826 70.180923 54.650581
46.614014 70.01442 54.533108
46.348709 70.209709 54.34063
44.505947 71.003464 54.112595
43.788643 71.008308 55.425896
45.848854 70.320442 54.743759
44.770962 71.070511 46.52335
44.931412 70.981491 46.80212
45.25832 71.002876 46.619125
45.104538 71.116226 46.23888
44.826004 71.247292 45.703667
45.366123 71.179512 45.848763
44.951004 71.183151 46.000198
46.801052 70.990868 45.957741
16.771551 20.194433 39.104836
17.130993 20.191662 39.175041
17.040321 20.163704 39.359837
45.966721 70.308258 48.681694
46.327873 70.389221 48.038731
16.259884 20.195925 39.375217
16.663492 20.134048 39.763363
45.354027 70.460587 48.534618
44.956516 70.604866 48.137962
44.183727 70.625664 48.690727
46.077393 70.507339 47.839668
45.490524 70.615944 47.824894
45.190155 70.775017 47.414612
46.755157 70.803818 46.569557
44.810009 70.927002 47.017513
44.462597 71.105042 46.479317
44.781658 71.138641 46.260193
44.858925 71.161324 46.141869
44.875786 70.849762 47.259846
45.212177 70.888123 47.033066
46.037323 70.631027 47.49118
46.393578 70.658981 47.215141
46.23885 70.791046 46.927044
46.020382 70.752762 47.152882
46.324711 70.890892 46.55389
46.724754 70.901619 46.290199
46.352039 71.020294 46.094601
45.778587 70.883125 46.837589
45.7384 71.039101 46.290913
45.62542 70.762711 47.292149
45.926517 70.429024 48.219826
45.652863 70.317863 48.967834
11.637424 20.385345 43.269829
17.070591 20.151669 39.613297
16.765167 20.157351 39.447144
45.291962 70.327255 55.591988
45.698299 70.251373 55.242817
45.463882 70.197929 55.789505
45.618111 70.133049 55.786407
44.722076 70.512756 55.791317
44.865452 70.451218 55.792168
43.806808 70.893921 55.814102
43.96841 70.828262 55.806641
45.339581 70.179604 50.257378
42.581421 70.892426 50.080856
42.739639 70.890167 49.836838
41.967129 71.167923 49.49501
41.797264 71.165665 49.863796
43.945839 70.674347 48.785713
43.679802 70.733444 48.985359
43.96936 70.682846 48.573257
43.601795 70.800858 48.390175
43.720688 70.748856 48.604198
45.31023 70.262421 55.791801
44.127499 70.763229 55.800156
44.282364 70.699158 55.795303
45.158863 70.326225 55.792919
11.425425 20.361385 43.767578
11.190794 20.462732 43.489483
45.010708 70.38913 55.7929
46.238411 69.97625 55.348373
45.757622 70.129089 55.586502
46.939911 69.673042 55.058357
47.023254 69.789856 54.46315
46.470863 69.775574 55.732559
46.243462 69.819855 50.77739
45.64299 70.069168 50.444557
13.56595 20.123762 42.797245
44.358978 70.390625 50.351738
44.343155 70.43869 50.122528
41.975986 71.077621 50.066151
16.787111 20.103186 40.099632
16.75349 20.08779 40.409546
43.950134 70.576721 49.831837
43.920734 70.637177 49.365967
42.46244 71.026733 49.447701
42.980404 70.88105 49.436119
43.503529 70.738213 49.436001
43.221165 70.855255 49.067268
16.957027 20.102633 40.271706
42.157967 71.173004 49.083817
42.684418 71.032936 48.905964
42.434505 71.159477 48.559566
16.997105 20.12661 39.906193
42.260147 71.189285 48.760521
41.527863 71.420624 48.865391
42.157669 71.270035 48.497925
42.154884 71.321747 48.256409
41.886749 71.320663 48.755539
41.566853 71.47171 48.596695
40.871315 71.753075 48.474659
40.439484 71.940781 48.306992
39.590584 72.332916 47.566315
39.482948 72.469749 47.234104
13.352045 20.125469 43.039936
39.820652 72.437309 47.292999
42.306602 71.742905 46.890091
42.185997 71.516403 47.607979
41.96064 71.797882 47.19664
41.948071 71.725494 47.375713
41.91346 71.642838 47.614906
42.145496 71.750977 47.092422
41.609467 71.873474 47.377453
41.724648 71.970337 47.044308
39.704327 72.578308 46.999954
39.999714 72.614815 46.846378
40.317692 72.493095 46.96048
40.256493 72.626801 46.678604
40.016293 72.500565 47.096329
40.263554 72.3246 47.369453
39.957821 72.737679 46.560471
39.447109 72.777763 46.555943
39.54689 72.933891 46.195175
40.301113 72.866707 46.018799
40.389122 72.72924 46.312237
42.177757 72.002235 46.398708
41.998112 71.995247 46.659061
41.948761 72.144829 46.326618
41.58905 72.141121 46.760101
41.837296 71.997658 46.861462
41.72377 72.189857 46.487251
41.127876 72.506104 46.288898
41.391499 72.345306 46.444324
41.366138 72.47187 46.136642
41.663322 72.311172 46.230389
41.599712 72.434219 45.974686
41.930664 72.267235 46.006882
40.853203 72.650299 46.153572
41.120609 72.591965 46.06699
40.966808 72.693039 45.941036
41.37365 71.633591 48.283295
41.852745 71.425003 48.352859
40.383842 72.106079 47.85606
40.90696 71.882401 48.037983
40.951141 72.063095 47.512615
41.426769 71.777328 47.803165
41.294907 72.122963 47.080647
40.759838 72.317802 47.057957
42.003757 71.876625 46.9618
40.618855 72.514549 46.697128
41.099621 72.34816 46.711792
41.129337 72.435486 46.475067
40.874298 72.533791 46.442738
40.618748 72.836891 45.855999
41.790882 71.558228 47.996155
39.978107 72.254593 47.688393
39.907406 72.347572 47.480293
39.362423 72.5728 46.972115
38.715458 72.257057 47.124996
38.627151 71.860199 48.225651
34.290775 71.751373 47.760048
34.300117 71.649887 48.075169
34.496101 71.734573 47.905224
34.605904 71.694046 48.076271
33.553612 71.614166 47.682018
37.916542 71.546349 47.253639
37.756493 71.532532 47.26128
37.900375 71.531013 47.349049
37.881062 71.568398 47.143997
37.7346 71.567558 47.071548
37.865891 71.60968 47.012543
37.751122 71.611115 46.943878
37.574371 71.601707 46.94112
37.567249 71.673431 46.726738
13.834915 20.076496 42.945305
13.650972 20.092192 43.042252
37.702106 71.643761 46.840645
37.740246 71.69976 46.738251
37.511192 71.485001 47.875523
37.351627 71.468857 47.932114
37.491302 71.490356 48.031883
37.806385 71.566452 48.134377
37.436432 71.483101 47.667641
37.667637 71.511444 47.714848
37.293739 71.470856 47.780067
37.244526 71.491829 47.582394
37.194717 71.524063 47.432602
37.818546 71.524521 47.487385
32.983143 71.574951 47.608131
32.093174 71.488876 46.662689
32.268051 71.536804 46.797836
47.398079 69.309875 55.328758
33.934902 72.269592 46.32621
33.977795 72.177711 46.554245
34.238731 72.281731 46.454395
32.596516 71.531082 46.231434
47.748653 69.317322 54.393993
37.245754 72.046753 45.420784
37.082245 72.200958 45.273861
37.110176 72.110855 45.492558
32.772591 72.143982 44.304878
32.712315 72.182625 44.111465
32.34626 72.286102 52.046951
32.41169 72.178513 51.993393
32.521072 72.283684 52.017723
33.84108 72.501945 51.763412
28.186115 71.469315 52.721519
28.124884 71.381042 52.685719
28.101479 71.44342 52.703957
34.973984 72.560669 51.186245
34.756008 72.417732 51.219532
34.847061 72.570961 51.267315
35.040985 72.381233 51.001114
30.385458 71.755005 52.395988
30.689449 71.752823 52.325394
30.570007 71.585739 52.355389
30.933018 71.7276 52.268059
30.796558 71.53273 52.298801
14.267832 20.017086 42.913185
14.224224 20.011726 43.034092
14.063599 20.040546 42.991383
30.59008 71.378044 52.345707
31.917934 71.695465 52.065346
31.815399 71.547806 52.080734
31.628721 71.764137 52.120544
31.958855 71.95211 52.062218
31.218298 71.844109 52.198368
31.627407 71.429016 52.113525
31.375793 71.537292 52.173836
31.436327 71.339874 52.152737
31.079266 71.530251 52.233234
47.220924 69.674782 54.302078
47.357281 69.570358 54.283474
31.375914 71.176765 52.127007
31.54027 71.252548 52.110123
32.31451 71.159149 51.79636
31.788149 71.106003 51.957996
32.268383 71.35878 51.910908
47.055679 69.795212 54.22097
32.066139 71.178055 51.898895
16.616995 20.014963 41.217045
46.961262 69.874359 54.254391
46.846294 69.936844 54.31831
31.680775 71.239822 52.061714
33.5158 72.539276 45.115475
33.369862 72.40181 45.195541
33.538891 72.494415 45.3046
33.393982 72.759995 44.250469
33.662956 72.806084 44.485329
33.737061 72.904007 44.252487
16.449192 19.945053 41.87513
33.939434 72.114647 51.568977
34.129883 72.090393 51.483742
34.293858 71.90873 51.317707
34.648014 72.121368 51.13842
30.579111 71.929649 52.358364
30.376736 71.504356 52.401909
30.353849 71.296783 52.405891
31.227688 71.318718 52.189877
29.806515 71.097015 52.522823
30.197931 71.408806 52.444607
30.154945 71.588272 52.448364
32.81279 71.796898 51.816246
33.512501 71.893311 51.63649
34.312225 72.083382 51.370731
34.268044 72.241241 51.445587
34.481586 72.278976 51.328117
34.184208 71.958542 51.421719
34.566776 72.490028 51.371868
34.730015 72.568665 51.341225
34.63345 72.214249 51.197887
34.776516 72.214111 51.088707
35.13892 72.199959 50.786385
35.271812 72.373726 50.828323
29.429825 71.802002 52.664375
29.898296 71.63662 52.503288
30.124485 71.232452 52.460072
29.823328 70.865097 52.521889
46.358959 69.812408 55.777336
16.596737 19.999166 41.371376
29.975983 71.404289 52.48877
46.06971 69.939629 55.778679
46.215004 69.875923 55.777752
28.791931 71.135002 52.651508
11.164057 20.519518 43.163818
10.85615 20.646471 42.952732
29.659412 70.862534 52.554234
46.572071 69.718117 55.760139
44.432442 70.63623 55.792351
44.578434 70.574234 55.791183
45.921829 70.003731 55.780529
32.34317 71.952545 51.977947
32.958611 71.978088 51.816319
33.589813 72.080276 51.671593
33.76585 72.132408 51.631996
33.862362 72.244743 51.626411
33.645607 72.263565 51.706245
30.868864 71.966141 52.283894
13.955883 20.06863 42.818161
32.716301 72.09761 51.909306
32.705879 72.322075 52.00631
32.81823 72.385826 52.012329
34.075237 72.291672 51.557133
33.695427 72.427109 51.76358
33.495251 72.35923 51.804359
11.940401 20.259466 43.694653
34.33197 72.444252 51.490101
34.397617 72.574318 51.542068
34.494335 72.570953 51.470215
34.916489 72.61351 51.270378
35.255276 72.639938 51.062126
35.334511 72.66185 51.025803
35.427849 72.702789 51.035465
35.152641 72.569153 51.070549
35.416088 72.427635 50.767868
35.805283 72.477821 50.543064
35.397579 72.284576 50.666595
35.595795 72.29744 50.541798
36.042469 72.430725 50.364647
33.481083 71.267448 50.781631
33.263763 71.177513 50.684536
33.223526 71.158737 50.870544
32.995415 71.09465 51.206142
33.987415 71.443169 50.694183
34.047813 71.437019 50.44426
33.878517 71.390747 50.587414
34.215946 71.523178 50.677845
34.31765 71.522453 50.458996
33.227448 71.220581 50.24543
33.019669 71.18071 50.204449
33.418842 71.241302 50.531502
33.693138 71.330055 50.550854
33.338303 71.246895 51.038498
33.863743 71.379028 50.483822
33.358883 71.237953 50.351856
34.09515 71.442261 50.246498
33.96595 71.409279 50.239986
11.114313 20.402498 44.053658
11.415632 20.316494 44.103184
34.993336 71.714348 50.151352
11.04801 20.465219 43.744286
33.819973 71.368088 50.361538
35.599152 72.093887 50.33572
35.654732 72.216911 50.430569
35.979408 72.061874 50.049042
35.783295 72.071533 50.178448
33.62561 71.371094 51.010479
33.78009 71.380775 50.770554
33.992237 71.50927 50.992069
15.655615 19.838661 43.77692
34.296432 71.604187 50.881371
15.316322 19.812822 44.285694
15.269918 19.808495 44.489712
15.425152 19.824215 44.144016
33.582169 71.302544 50.345455
33.433731 71.285172 50.165203
33.744465 71.363846 50.119827
14.355305 19.963547 43.298786
35.187187 71.734131 49.958221
15.044996 19.758421 44.813473
14.997023 19.740982 44.961269
34.39748 71.566757 50.569977
34.448574 71.568565 50.472801
34.516193 71.578888 50.326382
34.379631 71.515968 50.121181
11.695236 20.265553 44.017357
34.538746 71.624756 50.537148
34.436295 71.621422 50.703075
35.153835 71.815552 50.247753
34.949959 71.749779 50.317478
11.078011 20.317165 44.795021
10.997206 20.374811 44.524361
12.320736 20.132469 44.12418
34.247578 71.487335 50.271152
34.654572 71.548843 49.634918
37.572464 71.846039 49.456596
37.329395 71.821075 49.414143
37.099346 71.856155 49.476627
36.852436 71.834732 49.444923
15.138044 19.785467 44.664738
36.674755 71.917313 49.605038
38.769802 72.173767 49.406326
38.577114 72.050056 49.293938
38.314194 71.871048 49.152042
38.470169 71.779343 48.223873
10.848234 20.346857 45.070885
38.16011 71.700317 48.489265
11.154596 20.200991 45.396965
11.068958 20.17828 45.644577
38.224472 71.684593 48.242001
37.968472 71.540779 47.427628
37.533073 71.572418 48.454819
37.868713 71.655228 48.653652
37.47646 71.508682 48.152973
37.521095 71.532837 48.255276
10.656462 20.200232 46.088219
10.657131 20.234777 45.95837
37.546082 71.622795 48.757202
37.171547 71.594582 48.646378
37.384754 71.622482 48.833107
34.286118 71.508873 49.204147
34.714848 71.557159 49.135941
12.235876 19.956644 45.596527
12.29491 19.966097 45.447968
10.931051 20.270863 45.360123
33.51717 71.493744 48.50164
34.944736 71.70002 48.151535
11.43697 20.047533 45.868225
11.626009 20.059713 45.663147
11.774494 20.034473 45.681828
11.713203 20.014284 45.80595
32.954708 71.561874 47.745541
33.058247 71.550583 47.86467
37.033211 71.528793 47.510185
36.890251 71.529922 47.619175
37.054821 71.493034 47.718735
33.828705 71.770737 47.415096
33.773872 71.70253 47.560669
33.937534 71.755257 47.54377
34.033352 71.854004 47.350449
33.889965 71.918449 47.092636
34.045891 72.024384 46.946083
33.877953 71.986275 46.927994
34.122692 71.962784 47.13575
10.770868 20.283222 45.571136
43.642017 71.513397 53.570518
43.788868 71.432465 53.601357
33.091885 71.630608 47.188072
32.853226 71.611115 47.196522
32.960495 71.596191 47.416176
32.938 71.637543 46.931389
32.741039 71.604263 46.764709
11.842318 19.928232 46.028561
12.131708 19.937027 45.786003
11.889168 19.992727 45.773682
33.242764 72.586533 44.433781
33.172844 72.462006 44.581623
33.299431 72.563072 44.623451
33.453503 72.66935 44.606388
33.236015 72.760796 44.013603
33.161701 72.648216 44.121944
33.368 72.850197 44.005966
32.979565 72.403519 44.258942
11.526669 19.955376 46.145531
11.315498 20.008944 46.116238
33.943352 71.660645 47.808357
10.789742 20.227928 45.798405
34.280548 71.937317 47.268681
34.103554 71.777779 47.591309
33.798222 71.81778 47.265049
33.076218 71.984879 45.51202
33.139603 72.099487 45.401764
33.101238 72.088203 45.304287
32.712746 71.887085 44.662025
33.18869 72.606949 44.267956
15.7873 20.957869 34.525352
32.840958 72.1362 44.473885
33.013901 72.220245 44.722443
33.248512 72.215927 45.386738
33.344936 72.495003 44.86055
33.441193 72.330498 45.543438
33.425819 72.38591 45.382267
33.159954 72.225426 45.099426
32.890175 71.901634 45.11961
33.199852 72.043137 45.735958
33.597069 71.714958 47.363762
33.591309 71.95076 46.708748
33.644421 71.820091 47.109699
33.723412 71.928497 46.916809
33.866112 72.050407 46.755219
34.164501 72.137375 46.740608
33.433414 71.953903 46.485336
33.708672 72.102768 46.484261
34.105236 72.338402 46.298035
33.552868 72.225662 46.000256
33.481941 72.119804 46.163822
33.668976 72.19812 46.227711
33.843842 72.345963 46.056984
33.515781 72.074249 46.31601
33.328079 72.110321 45.875408
33.279057 72.02243 46.014454
33.295071 72.16642 45.637093
33.386314 72.095627 46.054405
33.492153 72.281006 45.755985
33.543888 72.444107 45.458382
33.660778 72.438019 45.614582
16.657408 20.750856 35.379974
33.694061 72.364288 45.844082
30.80349 71.51107 45.329556
31.018604 71.468147 45.410301
30.989578 71.517677 45.201981
31.558872 71.644165 44.150875
31.822437 71.564835 44.243629
17.317053 20.550135 36.419586
46.094498 70.320129 54.341705
31.366457 71.629913 44.341759
17.518654 20.425182 37.272385
46.608891 70.081657 54.236488
46.492661 70.149567 54.240456
46.727039 70.012192 54.235008
31.120344 71.542397 44.988255
31.142641 71.592941 44.725849
30.950144 71.602463 44.811733
31.376991 71.567657 44.594364
31.163076 71.62632 44.539593
31.313122 71.532906 44.825569
33.531883 72.649826 44.803802
35.473663 71.92247 50.167576
34.919617 71.610733 49.702866
36.164547 72.101326 50.003105
35.801006 71.940773 49.976036
36.08136 71.972801 49.874435
34.105206 71.448593 50.044861
33.807701 71.408554 49.797882
36.337559 72.044479 49.860069
36.539547 72.002777 49.747818
34.749283 71.561058 49.473328
