ply
format ascii 1.0
comment PCL generated
element vertex 587
property float x
property float y
property float z
element camera 1
property float view_px
property float view_py
property float view_pz
property float x_axisx
property float x_axisy
property float x_axisz
property float y_axisx
property float y_axisy
property float y_axisz
property float z_axisx
property float z_axisy
property float z_axisz
property float focal
property float scalex
property float scaley
property float centerx
property float centery
property int viewportx
property int viewporty
property float k1
property float k2
end_header
8.342021 23.580587 32.7355
10.568405 22.597111 32.552929
13.521236 22.876543 32.658947
15.208393 23.513958 32.953735
7.7933168 25.015575 32.750713
10.512914 25.683659 31.569803
13.628059 25.566555 31.799818
15.59519 25.33485 32.869667
8.5723753 27.957684 32.73378
10.80264 28.653509 31.285301
12.772298 28.38726 31.698423
11.187015 30.659819 32.239525
13.007301 31.247458 32.517406
14.162038 20.912481 35.656887
16.407181 20.838146 35.185795
65.708267 19.791805 35.689018
66.820824 20.114363 35.575634
7.8609843 23.558126 34.637157
10.554961 21.887276 34.407352
13.881476 21.509226 33.545807
16.564058 22.547255 34.201839
65.02195 22.776522 35.547604
67.712234 22.267891 35.305389
69.252464 23.666145 35.143353
5.7203622 26.552778 34.160118
6.763834 25.726524 33.532387
14.738392 26.828352 33.135403
17.098742 25.480347 33.553909
18.204279 26.008795 34.936867
62.844761 26.677713 35.788219
64.426956 25.528667 35.29599
67.330864 24.860126 35.550446
69.360596 24.877176 35.617538
4.8943348 28.538952 34.901569
7.2981629 28.700167 34.04892
9.0721302 29.665966 33.161476
14.332724 28.501999 33.746342
16.588808 28.479816 34.542252
18.141581 28.312864 35.640232
62.824326 27.472948 35.635174
64.04409 28.285099 35.238476
66.30262 27.581818 35.80518
5.5059786 30.070454 35.893856
8.099535 31.120205 35.025539
10.06783 31.822477 34.092247
14.274504 31.840155 33.742287
16.411974 31.098995 35.201878
18.060476 30.267498 35.796513
8.8187103 33.057003 35.944893
10.912154 33.627552 35.369789
13.697946 34.140354 35.074329
16.210644 35.178429 35.595936
11.689598 37.376274 35.64407
13.826612 37.482788 34.650406
15.489337 37.03915 35.460796
11.850965 39.226219 35.841637
13.352819 40.049686 35.569557
13.998322 20.703541 37.459061
17.221205 20.527714 37.312733
18.117235 20.761669 38.445953
58.944992 20.597061 38.770348
61.867943 19.165079 38.168091
64.366554 19.695211 37.033218
66.958664 19.379816 37.291943
7.9677196 23.088943 37.613731
10.490064 21.480816 37.534592
12.679349 21.073238 36.174171
17.857897 21.751499 36.779949
18.14253 22.249424 38.039272
56.99567 23.874302 38.876408
58.573025 22.62361 37.929325
61.498005 22.344494 37.593594
63.738914 22.191769 36.532921
67.646255 22.537807 36.817142
69.371498 23.374334 37.35796
5.4526663 26.364233 38.013412
6.4837213 24.794556 37.371918
18.493753 25.71789 37.750439
56.953438 24.689642 38.901329
58.224533 25.527874 37.81115
61.695869 25.65217 37.113914
63.329742 25.046864 36.397591
68.063141 25.410324 36.765167
70.157135 25.999016 36.715141
4.1615229 29.090483 37.444859
18.509727 28.278019 37.467201
58.968914 28.104256 37.724804
61.626026 28.540831 36.972134
64.446274 29.653296 36.385239
67.77446 28.445198 37.329411
70.682579 28.307278 37.432308
4.7998857 31.361137 37.516815
6.9997578 32.034023 36.688393
17.257534 32.323063 36.824615
18.301893 31.342024 38.061844
56.61533 32.47538 38.845051
58.562996 31.843359 38.539139
61.517639 31.175121 37.631699
64.256599 31.262968 37.999763
67.117264 30.689507 38.42614
69.208183 30.003998 38.99762
5.8701153 33.136902 38.887207
7.769043 34.341938 37.717731
10.80129 34.745922 36.520363
12.616347 34.281441 36.228291
16.905361 33.818466 36.889317
18.397438 34.908916 37.711086
56.608528 33.152237 38.910435
59.445564 33.712936 38.66407
61.227852 34.80278 37.396019
63.82906 34.40871 38.144245
8.3938875 36.919235 38.433941
10.134617 37.426373 37.192921
16.623934 37.835274 36.880051
18.731432 37.434109 37.436455
59.930523 37.804043 38.887695
61.152744 37.367451 38.361488
63.378796 36.804359 38.70396
10.77769 40.345196 37.700813
13.658921 41.038601 36.298
16.538002 40.636337 37.897861
18.655714 40.706718 38.311844
61.078865 39.236958 38.797626
11.431707 42.480877 38.15617
13.888527 43.30434 37.535072
15.859274 42.757381 38.551483
18.379677 42.257896 38.712498
17.506458 52.80719 38.53624
19.329845 52.861423 38.604336
21.767027 53.273609 38.931274
17.683603 54.998295 38.564034
19.505367 55.469669 38.258713
20.382362 59.270054 38.834347
21.424002 59.679108 38.819904
20.473202 61.467968 38.371887
21.697664 61.626141 38.371819
22.856297 64.166275 38.93195
24.462822 65.723465 38.908264
23.89702 66.95443 38.904453
25.325481 67.663956 38.573074
56.486649 17.628775 41.48613
58.413631 17.520472 40.653534
60.918755 17.7892 40.49958
63.171223 17.924213 41.820583
11.069756 20.937071 39.890087
13.854294 20.397243 40.145187
16.809542 20.156445 40.428032
18.297087 20.838778 39.821838
56.413563 18.944118 41.399483
58.125607 19.18103 39.826351
60.990887 18.243053 39.318642
64.595772 18.346218 40.46666
66.951309 19.128279 40.520298
7.7830014 23.034662 39.670177
10.558906 21.1712 39.510738
18.551804 22.565062 40.786022
56.61945 22.850494 40.693054
57.227879 21.898119 39.613106
68.680054 21.971537 39.455742
69.389664 23.160011 40.270325
5.5137348 26.047985 39.91143
6.4964938 24.452362 39.990948
18.575788 25.440987 40.499187
56.521343 25.156193 40.579689
57.110634 26.669413 39.271294
70.770454 25.900579 40.653175
4.2840314 28.545841 40.559196
18.589867 28.605673 40.716244
56.837601 28.302542 41.308285
58.013294 28.967997 39.618305
71.324066 29.302876 39.967449
4.370935 32.11219 40.137878
18.57045 30.966516 40.532261
56.352966 31.744572 40.505157
57.724251 30.359524 39.913975
65.60955 32.838329 39.111702
67.808662 32.086746 39.960609
70.657822 30.916363 40.655991
4.988554 34.359188 40.492867
6.461133 35.085785 39.887928
18.663862 34.512581 40.05434
56.339622 34.274323 40.367096
58.484348 34.719967 39.81279
60.007027 35.844318 39.065231
65.487999 35.023571 39.889675
66.940422 34.601593 40.759346
5.3403563 36.495899 41.759647
7.1522174 37.559727 40.567944
19.187946 37.518749 40.380344
56.273834 37.691921 40.734577
58.545918 37.606621 40.117653
61.453941 38.128834 39.066231
64.721107 37.721436 40.482826
66.501923 36.597973 41.517746
8.3705406 40.220074 40.788105
9.4536343 40.828533 39.870014
19.199421 40.675148 40.254406
56.817352 39.109798 41.674683
58.865738 39.697483 41.084579
61.097458 40.11692 40.190262
63.829819 39.437809 41.090725
8.8604994 42.111591 41.789516
10.650434 43.017216 40.686169
13.460049 44.100914 40.778137
16.429047 43.334045 40.257599
18.462442 42.484928 39.85347
17.647863 50.820004 41.24057
19.562298 50.532867 40.300182
21.293993 50.73774 41.072826
53.719341 50.699978 41.460747
55.407837 50.520096 41.302349
57.24688 50.755798 41.61491
16.410786 52.144165 40.781834
20.207346 51.763973 39.175823
22.073601 52.682236 39.931152
53.00769 52.657402 41.170815
55.411304 52.576359 40.876862
57.874084 52.335632 40.819866
16.578346 55.65361 40.632191
20.538776 55.823162 39.17841
22.029306 55.465088 40.36507
53.377018 55.16354 41.693283
55.448704 55.371922 40.621323
57.623703 54.924583 40.840958
17.680468 57.16436 41.306747
19.41934 58.082672 40.286171
22.666735 58.404266 39.949528
24.44276 59.177032 40.463131
52.572128 58.844368 41.676682
55.038204 58.373959 40.894764
19.410063 61.727516 40.437618
23.233307 61.43364 39.576962
24.584324 61.384274 40.606739
53.15506 61.165852 41.379044
55.013195 61.459194 40.677654
20.347342 63.312588 41.300789
22.823029 64.371262 40.132729
24.905462 64.25312 40.438595
27.322857 65.992622 41.872509
50.656925 65.59893 41.740189
52.567123 64.706604 41.404217
54.237667 63.194023 41.784058
23.312391 67.101425 40.400379
26.035385 68.222244 39.654709
27.815954 68.207428 41.205498
49.998943 68.008163 40.985462
51.744873 67.29834 40.822258
26.240303 69.354393 40.863365
28.280031 70.619308 40.448994
31.812262 71.019569 40.45763
33.768215 71.407372 41.6451
37.440914 71.567627 41.424095
41.649223 71.770256 41.833195
43.645786 71.043671 41.519169
46.401333 71.10405 41.394058
48.445827 70.772064 41.888424
32.479851 72.539375 41.164188
34.364788 73.044014 40.945217
37.64621 72.853081 41.285362
40.501392 72.954056 41.676689
42.654617 72.466843 41.5961
56.300632 17.515244 43.10918
58.11121 16.958084 43.538845
61.811447 17.432657 43.625057
63.728138 17.802588 43.424908
16.984859 20.23842 42.636299
18.160318 20.874113 42.538479
55.643559 19.408243 43.166874
64.982697 18.161392 42.587288
67.284569 19.349758 43.334179
17.698275 21.061186 43.677849
18.618591 22.586279 42.786091
55.689659 22.514029 43.384022
68.497589 21.290518 43.230263
69.612061 23.346916 42.936291
17.985979 25.697517 43.316246
18.369307 25.135885 43.385506
55.550175 25.764545 43.505596
70.810623 25.80488 43.13485
4.2113323 28.698168 42.791328
17.878553 28.03858 43.774059
18.158575 28.766905 43.018276
56.392136 28.260244 43.9077
71.437263 28.702494 43.236004
4.3077445 31.714012 43.039894
17.976738 30.112782 44.69788
18.306217 31.248013 43.857384
56.29108 31.248735 43.499702
70.94503 31.591667 43.18211
4.6853137 34.65675 42.971931
18.727259 34.156769 43.57135
55.938927 34.504322 43.606327
68.511604 35.001575 43.28257
69.86132 33.820831 43.948456
5.3742437 37.636902 42.816422
6.4335656 38.679543 42.282021
18.983917 37.488579 43.305206
56.223701 37.637505 43.439121
57.095085 38.855457 44.276264
65.462502 38.657272 42.240513
67.266296 37.491394 43.417553
5.8020272 39.656059 43.73772
6.7991524 40.592125 43.399662
18.717134 40.600147 43.303432
56.987034 39.040962 42.816578
58.655582 40.187084 43.756004
61.557911 40.83139 43.407974
64.442635 40.10667 43.35865
66.277779 39.326973 44.078457
8.2346659 42.709679 43.84153
10.392891 44.230316 43.312939
13.228761 44.778893 42.424797
16.904806 43.676556 42.692673
18.25131 42.899277 44.018898
59.372143 42.75423 44.854549
60.778473 42.382439 44.763443
11.479413 45.413406 43.996822
13.353765 46.127125 43.616688
16.313623 46.56028 42.865376
18.741674 46.687042 44.109055
56.572224 47.868614 44.882496
57.899414 47.577423 44.908615
14.155795 49.356224 44.195278
16.646868 49.693943 42.608494
19.358452 49.454117 42.833889
21.650274 50.316353 43.572002
53.341709 50.191383 43.758724
55.676098 49.411377 43.847271
58.305847 49.995148 44.234634
14.325886 52.645119 43.730228
15.505056 52.398003 42.416321
22.835262 52.723133 43.10453
52.228722 52.562359 43.701572
59.425873 52.06353 43.6693
60.009384 52.541183 44.912102
14.625188 54.938168 43.890675
15.657325 55.979488 43.211815
23.165529 55.573109 42.559643
24.382929 56.280415 43.516342
50.954365 56.507179 44.829292
52.243103 55.547634 43.428894
56.76704 56.907818 42.475155
58.446877 55.851898 43.718472
17.003365 58.232754 43.397041
18.513594 58.502544 42.564098
23.908911 57.126038 42.10289
25.321466 58.574051 43.189568
50.531624 58.761185 44.224705
51.812782 58.035023 42.545963
56.754078 57.856537 42.907875
57.300694 57.953636 44.302963
17.506172 60.845806 44.156452
18.511702 62.205067 43.76236
25.815603 61.451904 42.852802
27.753855 62.101242 44.365948
50.156067 61.526173 44.187023
51.854725 61.525005 42.560459
56.23671 61.857918 43.318222
57.157707 60.710518 44.180176
20.092997 63.961945 44.001408
21.56908 65.099991 43.055927
26.502426 63.562428 42.603352
28.425911 64.742386 43.777805
30.74662 65.296448 44.742668
47.553787 65.245689 44.615715
49.415451 64.204369 43.460114
53.382412 64.217628 43.230412
54.434116 63.499962 43.848408
22.566013 67.347702 43.597874
24.100029 68.944839 42.426983
28.643337 67.150536 42.99242
31.758247 67.754211 43.556828
34.242413 67.964149 44.376568
36.865948 68.32885 44.629154
40.928608 68.667999 44.773888
43.611618 68.045555 44.308319
46.862072 67.64035 44.218979
48.660999 67.708618 42.860893
52.272678 67.641083 43.55719
23.973526 69.021271 44.299408
25.926647 69.472687 43.607338
28.076603 70.749138 43.393497
31.777185 71.213135 43.734425
34.07933 70.187492 42.730579
37.903534 70.280586 43.365543
40.493111 70.735443 43.282307
43.542583 70.751099 43.045193
46.812099 70.763969 43.207886
49.127735 70.261108 43.243298
32.309723 72.324181 42.785
33.991287 73.050652 43.516247
37.760475 73.127831 43.67318
40.303349 73.270828 43.401192
42.838917 72.542137 43.234303
68.085983 20.380035 45.18087
55.007496 23.23476 45.253635
69.145248 22.248507 45.738987
55.043037 26.305737 45.303284
70.159607 24.181801 45.572433
55.6129 28.745687 45.619167
71.405983 29.041361 46.10482
18.354694 32.029289 45.160519
55.772305 31.479219 45.851631
71.200157 31.639618 46.062698
18.634022 33.932552 45.326756
55.73238 34.625603 46.462646
68.870667 35.959915 45.170914
70.259476 34.72123 45.927647
5.424448 38.01992 45.374901
18.766905 37.965946 45.670555
56.12999 37.552269 46.2724
67.84034 37.841579 46.514835
69.543846 36.499725 47.06218
5.7452374 39.46946 45.608906
6.326231 41.637806 45.303375
18.763514 40.78125 45.715961
56.379009 40.368786 46.687874
57.619225 40.856197 45.327564
62.878899 41.870239 45.129532
64.757317 41.068001 46.268955
66.535294 39.494808 46.667194
7.2700181 43.055767 45.743618
9.3285618 44.724827 45.489285
18.973774 43.515221 45.969193
55.730186 43.662804 46.899284
58.586777 43.865906 45.23502
61.777012 43.496716 46.273315
63.345184 42.541355 46.964279
10.917754 46.322193 46.100792
12.509549 47.444561 45.511906
20.025555 46.541222 46.189468
21.173 47.790894 47.255539
53.523178 47.16906 47.167969
55.375076 46.278889 46.153843
58.903339 46.412785 45.271015
60.999454 46.397419 46.916481
12.948485 49.310749 46.206432
20.877695 48.251617 45.728741
22.041059 49.668159 46.732777
52.775303 49.467964 46.26762
54.426159 48.445251 45.371975
59.6884 49.243221 45.19035
60.858437 49.693008 46.548977
13.692489 52.630825 46.689548
23.258345 52.360916 46.613125
24.013662 53.809772 47.539894
50.778553 53.607967 47.45755
51.527924 52.341328 46.33329
59.935196 52.176929 45.12825
60.611912 52.537712 46.163696
14.405872 55.2715 46.263859
15.183084 56.600208 47.034584
23.928417 54.09127 45.074814
25.052521 55.666183 46.483173
50.245434 55.438232 46.87476
51.272686 54.581387 45.458065
59.349384 55.777073 46.054638
60.357704 54.68066 47.044998
16.105373 58.616833 46.358662
26.480188 58.140141 46.227558
27.600935 59.351974 47.126583
47.777519 59.433666 47.24987
49.276493 58.62048 46.0602
58.12188 58.547588 46.095398
17.399342 61.389858 46.265728
18.210381 62.677387 46.161434
28.974049 61.031151 46.711002
31.087439 62.295586 47.249012
33.400696 62.811996 47.788918
38.922855 62.897842 47.857395
39.978409 62.719093 47.494919
44.485287 62.384094 47.668751
46.817917 61.739655 46.48069
48.75235 61.160316 45.383331
56.442623 62.350266 46.536804
57.451641 61.016895 46.540016
19.44989 64.270447 46.13855
29.755966 63.203587 45.085861
31.822304 64.156761 45.734066
34.59103 64.511703 46.598083
37.895359 64.414307 47.05999
40.340588 64.245407 46.952343
43.393597 64.862862 46.482452
46.318039 64.655838 45.622562
48.012718 63.100288 45.027954
53.772091 65.389786 46.294144
54.876923 63.97644 46.342869
20.845531 66.357399 46.644707
22.208027 67.750542 46.416138
24.0548 68.95047 46.032619
32.903748 66.387566 45.08316
34.452633 66.503815 45.267124
37.869049 67.249542 45.581535
40.434185 67.199661 45.671696
43.165997 66.608521 45.512947
45.937 66.282089 45.152691
49.977337 68.702919 46.927006
52.317986 67.451454 46.547134
23.642418 69.166229 47.198746
25.3859 69.711021 46.450516
28.313225 70.718185 46.65834
31.78804 71.442558 46.296898
33.787254 71.754372 47.27092
37.544998 71.724609 47.035736
41.801041 71.815384 47.325428
43.523907 71.319916 46.511097
46.920677 70.643753 46.574924
48.993832 69.618881 46.206619
34.119167 72.338608 45.915302
37.801548 72.363602 45.779018
40.318951 72.69368 46.251122
42.346638 72.216194 45.529457
67.748589 38.694275 48.047241
65.335648 41.338898 48.254364
66.565178 40.034061 48.150494
54.358704 44.218655 48.105999
62.659351 44.474251 48.264862
63.760921 43.077492 48.313576
53.238239 46.306244 48.281643
61.897209 46.549904 48.401024
51.895275 49.308685 48.489086
61.572498 49.528385 48.741699
14.060463 53.587849 48.024212
23.402468 52.532646 48.133221
24.118988 53.762054 48.287945
50.631187 53.209961 48.612835
51.186901 51.52351 48.629852
61.169838 52.722137 48.928905
14.644744 54.885826 48.125626
15.374131 56.20335 48.317692
25.382265 55.574055 48.353882
49.660408 55.079601 48.746788
59.708576 56.225639 49.317356
60.499634 54.91391 48.763382
16.781076 58.671318 48.537342
26.591221 57.357014 48.246635
28.607422 59.165627 48.840237
32.214722 59.70507 49.546322
33.8382 59.780556 49.349701
44.922447 59.862602 50.047573
46.220188 59.221622 49.416214
48.353203 57.367531 48.63073
58.57888 58.639683 49.225895
17.616312 60.77729 48.268318
18.503754 62.026817 48.767426
29.465881 60.424862 48.442303
31.639885 61.068962 49.002468
34.269882 61.191124 48.934975
37.416477 61.765903 49.204906
40.869686 62.072567 49.14003
43.159832 61.555454 49.49662
45.730362 60.360756 48.682484
56.365971 62.211601 49.608139
57.46571 60.94857 49.12899
20.141876 64.305626 48.978458
21.177759 65.531586 49.597729
35.524574 63.146526 48.036469
37.523399 63.187962 48.241062
41.763325 63.177437 48.167618
42.359921 63.139988 48.269455
53.696224 65.697418 49.786682
54.99786 64.09227 49.291904
20.802919 66.041298 48.078259
22.517338 67.675072 49.136654
24.648863 68.740372 50.013977
50.313709 68.510803 49.368046
52.260345 67.17878 49.381721
23.74799 69.173523 48.486717
25.464199 69.644646 48.98497
28.449675 70.698112 48.622913
31.488953 71.292549 48.641613
34.096882 71.565208 48.274841
37.832035 71.725304 48.572128
40.798752 71.675186 48.875675
43.49271 70.8573 48.553852
47.117794 69.983322 48.80595
48.775845 69.366943 49.137043
35.726719 72.586655 50.723392
37.171101 72.635674 50.213623
39.412617 72.081688 48.807758
53.256882 65.695663 51.192772
54.019588 64.702843 51.042755
50.309994 68.226944 51.229534
52.076565 66.951653 51.140869
35.140514 72.657822 51.249722
36.968956 72.791153 51.442394
40.148987 72.608376 51.584625
0 0 0 1 0 0 0 1 0 0 0 1 0 0 0 0 0 587 1 0 0
