ply
format ascii 1.0
comment PCL generated
element vertex 738
property float x
property float y
property float z
element camera 1
property float view_px
property float view_py
property float view_pz
property float x_axisx
property float x_axisy
property float x_axisz
property float y_axisx
property float y_axisy
property float y_axisz
property float z_axisx
property float z_axisy
property float z_axisz
property float focal
property float scalex
property float scaley
property float centerx
property float centery
property int viewportx
property int viewporty
property float k1
property float k2
end_header
11.836362 28.118183 29.70031
12.654545 27.87273 29.700315
62.999889 23.249998 32.700336
64.221596 23.313255 32.461807
10.769388 25.983669 31.65135
13.426383 25.555218 31.054935
16.151617 25.461288 31.842264
18.245453 26.154551 32.46397
65.032082 25.030437 32.423843
66.299919 25.349997 32.70034
10.564417 28.350916 30.738375
13.633501 28.503002 31.167309
16.257832 27.444586 32.360603
18.1 27.1 32.600334
62.999889 28.799999 32.70034
64.236862 28.783562 32.667469
10.989474 30.949627 31.775534
13.322097 31.276745 31.985201
15.066667 31.777779 32.611446
13.538462 33.153843 32.561882
11.325005 23.599998 34.750359
13.393226 23.486435 35.196964
15.855561 23.733328 34.817032
59.64592 23.340002 34.992367
61.804398 22.588942 34.331524
64.811958 22.108618 34.117607
66.981499 23.008799 34.663563
10.453988 24.995714 34.119381
13.145223 24.216537 34.296871
16.860001 24.286377 34.047619
18.522665 25.762493 34.345661
59.253746 25.279491 35.031132
61.754433 25.352722 34.274895
64.044586 25.817642 33.3815
67.440933 25.431147 34.215137
14.614289 29.314287 33.00034
16.411428 28.779985 33.366047
18.810543 28.242857 34.394161
59.089844 28.413424 34.935242
61.879566 28.4375 34.130054
64.826881 28.101007 33.159317
67.358391 28.361925 34.413448
10.772726 32.31818 33.254894
14.700003 30 33.000343
16.403034 31.440929 34.020058
18.819563 31.210863 34.785133
59.634682 30.19565 35.465591
61.867779 30.989786 35.050007
64.595604 31.065718 34.24749
66.846725 30.505058 34.861118
11.340701 33.645348 34.427113
13.373528 34.377937 34.397434
16.213503 34.346996 34.878357
18.659996 35.460007 35.448368
59.68325 34.238888 35.550369
61.599888 34.394562 35.151299
63.426811 34.973076 35.561913
11.607144 37.164288 35.128937
13.24059 37.20882 34.279778
16.323156 37.359474 34.680328
19.048517 37.00396 35.314224
59.899895 36.100002 35.600368
61.684792 36.579063 35.40387
63.399887 36.266666 35.700375
11.8875 39.799999 35.175354
13.486362 40.15567 34.897522
15.315251 39.772888 35.313915
14.042309 42.323074 35.700375
15.149999 42.100002 35.700367
62.69989 20.999998 38.400398
64.985359 20.432728 37.876747
66.985123 19.895451 36.821968
14.146759 22.58182 36.440636
15.886769 23.053667 37.425377
59.732742 23.399998 37.120705
61.557022 22.193638 37.552769
64.605019 21.574362 37.177322
67.230186 22.114681 36.762772
13.400006 24.000002 36.000374
17.011564 25.158384 37.496929
18.223253 26.141857 36.439926
58.896915 25.316763 37.432125
68.427834 25.576746 36.432945
17.580006 27.611998 38.3764
18.616987 28.505663 37.224941
58.42701 28.519878 37.45232
68.510452 28.685522 36.659611
69.29995 29.449997 37.600384
13.800006 32.520004 38.580402
16.861979 32.112392 38.063206
18.651026 31.171431 37.169777
56.705811 32.423531 37.782734
58.880161 31.402468 37.256004
61.322258 32.048676 36.209602
64.882301 31.918312 37.413776
67.597992 31.134161 37.611607
69.385666 30.514286 38.421825
11.44286 34.096634 37.1525
12.817241 33.706047 38.00988
16.759619 33.767307 37.390766
18.85 35.082504 37.332893
56.131577 34.341663 37.55703
58.263691 34.596844 36.44212
62.635601 33.171425 36.086086
64.693481 34.273891 37.252113
17.342855 38.585724 36.114655
19.859035 37.440983 37.161022
56.281086 37.410892 38.26968
58.830254 37.203377 37.461605
61.502842 37.785282 36.37389
64.498291 37.30106 37.306179
12.374999 41.625 36.000374
16.6073 40.357643 36.53907
19.512661 40.348194 37.531113
56.372631 39.340912 38.359482
59.056221 40.137356 38.014912
61.629677 40.585091 37.374935
64.037186 39.866955 37.874123
13.581656 43.624264 36.973156
16.264866 43.283772 37.393665
19.098913 42.593475 37.891685
19.98387 50.699989 38.41975
21.299992 50.700001 38.700401
17.157982 52.661346 37.913853
19.467613 52.228958 37.551537
22.393116 52.443756 37.884792
53.060623 52.917847 38.446835
55.696629 52.664749 38.351212
57.806141 53.118755 38.41914
17.021372 55.336548 37.895538
19.638985 55.501694 37.144447
22.264919 55.088055 38.033226
53.278633 54.517029 38.553593
55.599895 55.515244 38.090195
57.848473 55.084297 38.396107
17.849998 57.000004 38.600399
19.798243 58.245609 37.991604
22.606207 58.445942 37.94574
24.694986 58.994991 38.215397
53.874912 59.450008 38.625404
55.029457 58.793186 38.639042
19.845875 61.424122 37.742142
22.66785 61.417854 37.293224
24.721508 61.029118 38.164944
53.445831 61.359169 38.293251
55.0513 61.390652 38.347115
20.639999 63.105003 38.415398
22.766277 64.026031 37.970806
24.928843 64.846161 38.109058
52.535213 64.588242 38.700401
54.299915 63 38.700405
23.444824 66.975845 37.979717
25.608997 67.522842 37.371674
27.368561 67.980011 38.331829
49.974731 67.651093 38.357227
51.681183 67.018761 38.556656
26.07551 69.104095 38.173866
28.614368 70.501663 38.21143
31.55419 70.873596 38.038464
37.04998 71.700005 38.700405
44.236317 71.1091 38.700401
45.479958 71.250008 38.700401
49.389416 69 38.574078
31.543636 72.109093 38.367668
34.565994 72.795036 38.535404
37.049988 72.583931 38.518257
16.971434 23.485714 39.086117
59.431473 23.360529 39.639893
60.699902 22.530001 39.110409
17.566164 24.93231 39.448093
18.143997 25.938 39.852417
56.999893 26.22353 41.294537
58.608074 25.472128 39.921715
60.299896 24.224998 39.150406
17.627279 28.700003 39.273132
18.208487 28.377964 40.386028
56.999893 27.511765 41.488667
58.872158 28.377548 40.447765
60.673065 29.531706 40.361389
14.150006 32.450005 39.175411
16.73 31.463329 39.873756
18.000002 31.057501 41.167919
56.795036 32.473175 39.871155
58.597931 31.37673 40.596931
61.594234 30.805649 40.280701
64.367897 31.575989 39.728401
68.152313 32.347614 39.400398
69.645233 32.026417 40.058899
13.714292 33.421429 39.221836
16.93244 34.080322 40.380714
18.415001 35.154991 39.810413
56.069069 34.275429 40.423294
57.299904 33.074997 41.700432
65.731506 34.384209 39.458294
67.485748 34.143127 40.462025
69.647942 33.179996 41.376431
17.785715 36.171425 41.400433
19.225002 37.345318 40.3895
55.589527 37.388962 40.420563
65.704979 37.533337 40.144016
66.504761 36.731709 41.422382
19.75738 40.449192 40.479107
56.316841 39.715389 40.216572
58.553097 40.993557 40.331062
61.687916 41.335999 40.46841
64.551544 40.180016 40.353771
13.811195 43.535828 40.466824
16.50296 43.421658 40.522591
18.867865 42.602684 40.071835
19.874998 50.699986 40.316319
21.549988 50.699986 40.30875
53.687412 50.700001 40.975422
55.236259 50.69997 40.641327
16.791519 52.46949 40.347866
18.422443 51.11021 40.549404
22.791838 52.157619 40.400936
52.391853 52.086235 40.2061
56.096725 51.178738 39.785507
58.304447 52.517155 40.354683
16.027113 55.481369 40.293621
20.714279 56.528572 41.514717
22.41382 55.316475 40.439766
52.58189 55.373135 40.176617
56.899899 56.700001 39.000401
58.864254 55.514633 40.273571
17.338095 57.142872 40.357552
19.155319 58.146355 40.566772
22.787691 57.33688 40.512691
25.019577 58.510136 40.334209
50.44025 58.825211 40.573505
52.572048 58.026924 39.935017
56.118092 58.276733 39.978546
57.744335 57.205566 40.85043
18.726507 61.443977 40.317871
23.999985 62.340004 41.700432
24.89999 61.352703 40.38546
50.487514 61.151829 40.544212
52.0592 61.369911 39.449081
56.328255 61.486671 40.278748
20.122225 63.469437 40.405979
22.024994 64.611366 40.270893
25.972298 63.853821 40.081924
27.730289 64.678787 40.882229
47.751003 64.863823 41.419582
49.701801 64.309227 40.474152
52.809231 64.401764 39.985359
54.971191 63.400982 40.509338
22.862427 67.423698 40.33741
25.139996 67.727997 39.288406
28.520288 67.359428 40.33231
31.432817 67.815689 41.111588
34.94997 68.549995 41.700439
36.299973 68.700005 41.700432
43.9062 68.462486 41.487934
47.369949 67.61602 40.810383
49.304279 67.147827 39.561272
52.318676 67.381248 40.35194
23.999998 69 40.928993
25.514383 69.441765 40.385338
28.398634 70.641129 40.147003
31.925484 69.900017 40.00629
34.618488 70.439972 40.401409
37.432446 70.749748 40.569527
40.82061 70.893829 40.781643
43.551479 70.386986 40.10078
46.752323 70.59642 40.21991
49.234303 69.765572 40.506641
31.730064 72.29998 40.128235
34.444981 73.146805 40.27317
37.830338 73.147766 40.170105
40.523174 73.085411 40.119267
43.137592 72.302963 40.35191
46.046471 72 40.235302
56.999908 26.700001 42.000435
17.59091 29.304552 42.736805
18 29.290913 42.082253
56.999893 28.630775 42.508137
57.520958 29.384212 42.095165
17.700001 29.999998 42.900444
18.000002 30.150002 42.300434
56.999889 31.349998 43.900448
57.86076 31.502176 42.746136
17.653847 35.215385 42.069664
18.000002 34.760521 42.584644
56.791748 34.775513 42.63718
57.69191 34.192646 43.397385
68.344101 35.173244 42.712067
69.990463 34.66293 43.314255
17.66667 36.677773 42.422657
18.241306 37.666302 42.936329
56.537636 37.285717 42.591255
57.712719 37.556408 43.954342
65.966568 38.599998 42.233768
67.330658 37.298019 43.467773
69.518127 36.081818 44.618645
14.700001 41.700005 42.600441
16.984819 41.244648 42.9701
18.411983 40.159866 43.284931
56.868645 39.225002 42.225433
58.699501 40.094994 43.524712
61.598892 40.549545 43.210659
64.689651 40.278137 43.374866
66.388145 39.088234 44.206329
13.923854 43.128426 42.903217
16.417744 43.067741 43.253674
18.522579 43.437107 44.323036
59.09108 42.904415 44.594566
61.349888 42.46286 44.44759
14.267214 46.214748 44.238144
16.407873 46.344101 43.84296
18.976587 46.452122 44.183403
14.565305 49.181637 44.20454
16.447828 49.273914 43.602627
19.678259 49.619579 43.452648
21.530758 50.515388 44.262001
53.768082 50.700008 42.845898
55.611732 50.157272 43.789585
58.1922 49.676926 44.600445
14.842854 51.885712 44.014748
16.317682 52.438683 43.235256
19.186363 51.920456 42.770901
21.953949 52.35873 43.329029
52.79557 52.23893 43.359097
56.150478 51.492138 43.44651
58.673336 52.347866 43.481983
16.412088 55.607452 43.409748
19.760216 55.766853 43.11758
21.806438 54.496773 43.271423
53.259895 54.973984 42.976463
55.35088 55.974525 43.765141
59.045509 55.65078 43.502029
17.48049 57.373173 43.895576
19.344055 58.609913 43.384563
22.694445 57.797207 42.981007
24.932465 58.543953 43.555859
50.4991 58.710747 43.269875
52.594425 57.611828 43.276035
55.96384 58.147236 43.237942
57.643471 57.943546 42.692398
19.047613 61.471436 43.42112
23.171415 62.142857 43.260445
25.6203 61.253338 43.567455
27.625507 62.355312 44.074921
47.766586 62.399998 44.142128
49.928894 61.757832 43.313236
52.199905 61.910023 44.050434
56.683559 62.023636 43.470459
57.299873 60.610172 43.297054
20.202276 63.334084 42.995918
22.62339 64.079033 43.150879
25.144878 63.140823 42.582077
28.523664 64.574707 43.546501
30.918964 65.289879 43.777653
35.004513 65.645454 44.591362
44.440853 65.454536 44.148197
46.980232 64.515526 43.497616
50.209023 63.027271 43.500443
52.845863 64.109581 43.444477
55.204914 63.379971 43.345463
22.791428 67.505135 43.375317
25.947498 68.225029 44.000465
28.211178 67.009933 43.569424
32.16959 67.083954 43.256828
34.608597 67.082298 43.217262
37.541065 67.706863 43.593597
40.54538 67.652428 43.617218
43.483116 67.274284 43.149986
46.592236 67.040535 43.047333
49.291607 68.449982 44.542133
52.432556 67.533691 43.332024
23.999996 69 42.300438
25.331633 69.177513 42.768818
28.306391 70.468948 43.360062
31.693184 70.963951 43.698009
33.221046 70.989479 44.479401
37.861145 70.127205 42.952877
40.606411 69.343559 42.213356
43.665329 71.314972 43.401257
46.909081 70.936363 43.498844
49.487206 69.545433 43.082314
32.635719 72.10714 42.364719
34.428566 72.512413 43.33976
37.594837 72.623222 43.291431
40.601665 72.849976 43.38879
42.462822 72.188583 42.806149
56.999908 35.579998 45.060463
70.881783 35.700001 45.191376
18.900002 38.700008 47.250488
56.562523 37.433586 46.42033
58.091915 37.896 45.852482
61.254444 38.590916 47.536861
68.274117 38.056442 45.895649
70.192566 37.075935 46.506042
13.701731 40.939648 45.776356
16.552177 40.913063 45.97876
18.994205 40.44545 46.376534
56.278053 40.447502 46.507973
58.620296 40.395905 47.022919
61.54435 40.324448 47.384922
65.222534 41.062782 46.097572
67.104942 39.761875 46.718452
14.038713 43.345154 46.497242
16.406322 43.379734 46.470039
19.342398 43.44873 46.32962
55.735096 43.460804 46.41153
58.54129 43.338596 46.399136
61.846359 43.597187 46.169464
63.899899 42.529423 46.818153
14.43 45.120003 47.430489
16.209 46.056 47.310501
19.553839 45.384617 45.854321
53.999908 45.75 47.550491
55.562168 46.1283 45.821239
58.781719 46.404552 45.134556
61.053879 46.195995 46.682472
15.5 48.133335 47.433823
53.308605 50.400002 45.209171
55.469898 48.360001 45.080463
59.391682 49.031513 45.144314
60.536453 49.384621 46.51202
15.3 53.600006 47.350491
22.46052 52.255264 45.584686
52.604794 52.499992 46.095581
59.856106 52.849312 45.764874
60.386528 51.900028 46.520485
15.96595 55.736164 46.468601
25.690887 56.445454 46.991394
50.264915 56.655006 46.60548
52.581959 55.31282 45.418423
55.69812 55.767857 45.177258
58.948284 55.422634 46.29208
17.22941 57.986259 46.222088
18.160711 59.319637 46.650486
26.223825 58.123257 46.066208
27.849331 59.127277 47.053738
47.601753 59.083622 47.335033
49.586647 58.285301 46.314213
52.019913 57.269997 45.160473
56.615135 58.685875 45.73745
57.795013 58.034122 46.705345
19.431946 61.348591 46.351849
21.449997 62.699997 45.000465
26.849977 60.214283 45.107613
28.824301 61.208103 46.11536
31.171402 62.260712 47.189751
44.494678 62.384201 47.439953
46.723156 61.329369 46.476284
49.559334 60.816826 45.345036
53.04425 61.898972 45.727283
55.766476 61.52108 46.272362
20.788893 63.177788 46.500484
22.127186 64.323761 46.233963
29.575588 63.629269 45.124866
31.781017 64.034492 45.900497
34.680801 64.421928 46.397709
37.758591 64.857964 46.877041
40.54113 64.813728 46.824017
43.672821 64.290161 46.413269
46.574467 64.460884 45.699234
52.714214 64.328583 46.470821
54.299923 63.000011 47.700489
23.206957 66.839989 46.033527
25.483334 67.503044 46.268639
28.033045 68.04525 46.508308
32.558807 68.038223 45.326939
34.313305 66.706665 45.260468
37.621014 66.897362 45.611008
40.930653 66.959404 45.606426
42.938511 67.67572 45.793331
47.051125 67.358131 45.858608
49.600395 67.585312 46.249985
52.090469 67.043396 46.217434
28.979071 69.813934 46.08654
31.068213 69.889572 46.245567
34.43409 70.633217 46.345745
37.492142 70.366386 45.956783
40.856155 70.771912 46.849266
43.520817 70.193054 46.275505
46.392445 69.936394 46.141518
34.992001 72 45.144478
38.625004 72.125 45.250469
40.216434 72.184921 45.510086
18.6 38.700001 48.7005
55.937046 38.031429 48.411922
59.124386 38.259186 48.404594
61.535484 38.242382 48.427628
64.069466 38.530441 49.109203
70.697342 38.131569 48.470238
16.656248 40.596878 49.028637
19.009087 40.572723 48.964123
55.192989 40.619995 49.059731
58.042843 40.487648 49.39463
62.734303 40.168747 48.575481
64.228142 40.54129 49.587456
67.95784 40.801594 49.061569
69.675995 39.676067 49.504734
13.866669 44.666668 48.100494
17.109375 43.066418 49.25441
19.356668 42.960003 49.043842
53.888645 44.066124 49.442451
55.770752 43.245823 49.143581
58.651543 43.958229 48.669735
61.656208 43.543205 49.217075
64.619209 43.439789 49.366638
66.899887 42.622234 50.122753
14.481821 46.172737 49.200512
15.300005 46.442993 48.645512
53.724911 45.225002 48.500504
56.36657 45.266666 48.41716
59.068592 46.107559 49.221817
61.814667 46.588787 49.43729
63.821415 45.590778 50.091293
14.7 48 50.220512
15.139998 48.340004 49.000507
51.582245 50.338234 49.897572
59.739902 48.099998 49.640514
60.976826 49.261181 49.476837
15.509999 53.640007 49.650517
50.999912 51.749996 49.80051
51.4827 51.618752 48.877071
59.970512 53.335285 49.247578
60.396282 51.864292 49.468361
16.641348 55.331928 49.308914
18.225 56.625 50.475521
26.118559 55.906197 49.447426
47.930698 56.630775 50.35437
49.023438 55.878151 49.53331
58.897091 55.372627 49.354717
17.624998 57.25 48.125492
18.822226 58.762962 48.878284
26.909069 57.154552 48.964146
28.554396 58.576469 49.362232
30.399971 59.700005 50.433853
44.916607 59.58334 50.183849
46.643902 58.296852 49.277184
48.494041 57.158817 48.265202
56.685108 59.14444 49.682003
57.575466 57.872093 48.837727
20.209795 61.098034 49.116199
21.379246 62.281136 49.975994
29.822701 60.177269 48.300491
31.654264 61.111427 49.254799
34.419365 62.15152 49.464684
37.601006 62.295784 50.065788
40.857834 62.178944 49.974213
43.675621 61.305408 49.234283
45.590256 60.329037 48.290821
53.764778 62.327023 50.124836
55.367924 61.19249 49.2365
22.546427 64.396423 49.025455
24.531424 65.528557 50.357658
35.293507 63.096779 48.252117
37.649952 63.406677 48.557178
40.602482 63.326599 48.516941
42.412445 63.074997 48.112995
50.440472 65.513504 50.092396
52.646767 64.297905 49.156277
54.299919 63 48.1805
23.676922 66.069229 48.323582
25.567791 66.723709 49.24456
28.319349 67.837082 49.494083
31.267498 68.362534 49.943012
34.875 68.662506 50.344265
36.849995 68.624992 50.400517
41.6647 68.700005 50.40052
43.683773 68.387375 49.464596
46.3396 67.688797 49.482399
49.57552 66.380287 49.276108
51.41531 66.115379 48.27742
29.699999 69 48.0005
31.924286 69.077141 48.587635
34.997864 69.287247 48.594112
36.736355 69 49.336868
40.528297 69.713196 48.26088
44.345417 69 48.000492
45.479958 69 48.000496
54.599915 41.700005 51.00053
57.52491 41.700005 51.000526
64.933235 41.766666 51.100529
68.812447 41.587498 51.075527
19.200001 42.18 51.000526
53.999908 43.414288 51.086239
55.869678 43.053482 51.30751
59.061184 43.887112 51.324722
61.569328 44.171894 51.813793
64.605583 43.704548 51.559608
67.139328 43.476925 51.718796
59.587399 45.512508 51.263027
61.298141 46.70351 52.198803
64.637001 46.411427 52.304874
66.299911 45 52.920544
51.669121 49.765381 51.940941
59.999897 48.420002 51.180531
61.863964 49.239548 52.260605
63.534264 48.300003 53.259922
15.829411 53.647068 52.571129
59.84074 53.436722 52.310745
60.751099 51.916798 52.426174
16.870073 54.858387 52.272808
18.213154 56.360519 52.184757
26.124975 55.750004 51.150532
47.761993 56.482754 51.890194
48.953053 54.987503 51.891148
56.999908 56.700001 53.550549
58.478203 55.165649 52.321625
19.777122 58.685616 52.500546
26.999977 57 51.000526
28.766647 58.151844 51.515373
31.175779 59.458046 52.065044
33.299969 59.700001 53.100544
41.512447 59.643757 53.606808
44.020977 59.217304 52.624607
46.224331 57.843906 52.024899
55.903507 58.769798 52.530758
57.299908 57 51.00053
20.642559 60.421288 51.77927
21.44211 61.168438 52.386826
32.268394 60.215809 51.568958
34.455284 60.596806 52.063316
37.643677 60.829945 52.346088
40.580303 60.7393 52.238014
43.010239 60.330898 51.666718
53.746487 61.163788 52.272953
54.703892 60.388008 51.996529
23.700003 64.5 51.000523
25.899111 64.791946 52.120152
27.270725 65.04879 52.544441
31.859997 65.699997 53.460552
49.128689 64.890015 52.024303
52.499924 63.600002 51.00053
26.52 66 51.000526
27.678949 66.331589 51.079479
31.86965 66.958939 51.718403
37.062164 67.370285 52.330257
41.774994 68.325005 51.075523
43.689991 67.745018 51.270542
46.418144 67.049995 51.095993
48.646103 66.069229 51.069759
61.499905 47.348278 54.25919
64.965408 47.182762 54.228146
62.622776 50.284283 55.041996
63.791119 48.918758 54.848061
16.00588 53.629421 54.812336
59.825497 53.511623 55.361027
61.230957 52.040848 55.323135
17.012972 54.909153 55.351727
18.270586 56.411766 55.37117
56.999893 56.700008 55.300564
58.327217 55.191277 55.359261
19.741762 58.277641 55.361179
21 59.700008 55.869808
37.382107 59.378559 54.86842
40.956619 59.083321 54.787239
43.184147 58.831573 54.142654
53.999916 59.700005 56.100578
55.643204 58.365685 55.321472
20.999998 60 54.780567
21.816671 60.483356 55.563084
24.899998 62.400005 56.280586
37.499958 60 54.000557
39.599957 60 54.000561
49.007088 62.614296 55.993435
53.552563 60.273708 55.332165
54.299915 60 54.000561
26.086365 63.436367 54.409645
27.333334 64.066666 54.200562
31.573259 65.127914 55.608734
33.981819 65.599983 56.164227
41.849979 65.400002 56.500584
43.282475 65.070023 56.05558
48.781769 63.190918 54.946014
35.624996 66 55.913078
37.403996 66.329979 55.656597
39.539989 66.210007 56.220581
59.637833 53.441376 57.714382
60.964771 52.337845 57.243843
17.174118 55.125877 57.918232
18.206245 56.443737 58.300598
56.485615 56.671432 58.743462
58.166328 55.302788 58.133434
19.719667 58.268852 58.385765
21.231813 59.699997 58.25515
53.878288 59.15675 58.622231
55.600971 58.199993 58.318981
22.554165 60.747932 58.375591
25.107277 62.168201 58.696957
47.930717 62.700008 58.962154
49.708122 62.048492 58.498367
52.483261 60.607128 58.429165
26.616671 63 58.13393
28.470488 63.695896 58.591553
31.497929 64.715157 58.359913
34.622398 65.388031 58.421387
37.278675 64.490158 59.007164
40.923508 65.355888 58.656471
43.646908 64.616318 58.369984
46.54063 63.439816 58.487881
37.468422 66 58.350578
39.581806 66 58.046055
55.649914 56.587502 60.075619
57.299904 56.400002 60.000622
20.001726 58.536221 60.435093
21.299995 59.530437 60.822372
50.699924 59.099995 61.500629
53.687428 59.02499 60.925629
55.315907 58.336002 60.572605
22.856752 60.667583 61.084427
25.466461 61.993793 61.403782
28.796942 61.705093 61.855747
30.995434 62.522682 61.591549
43.805725 62.368271 61.711182
47.122055 61.544228 61.895386
49.62149 61.796078 61.388817
52.236443 60.581738 61.174541
28.346151 63.590408 61.360226
31.791782 64.279396 61.451305
34.416882 64.549408 61.264225
37.55228 64.464233 61.321716
40.802681 64.287086 61.301044
43.457371 64.170959 61.194851
46.324947 63.374989 61.350613
35.233326 66.061119 61.750637
37.360466 66.153465 60.928505
39.449986 66 60.769375
26.1 62.370007 63.180656
29.04705 62.276474 63.159481
30.67499 62.700008 63.300655
44.147953 62.424004 63.240658
47.188179 62.347069 63.212425
49.151943 62.052013 63.168648
28.664061 63.651562 63.549076
31.6581 64.540543 63.805359
34.502655 64.614166 63.773254
37.634197 64.547371 63.525654
40.934975 64.079987 63.455639
42.849964 63.220009 63.47065
46.694954 63.180004 63.180653
33.969231 66 63.277573
0 0 0 1 0 0 0 1 0 0 0 1 0 0 0 0 0 738 1 0 0
