ply
format ascii 1.0
comment PCL generated
element vertex 1597
property float x
property float y
property float z
element camera 0
property float view_px
property float view_py
property float view_pz
property float x_axisx
property float x_axisy
property float x_axisz
property float y_axisx
property float y_axisy
property float y_axisz
property float z_axisx
property float z_axisy
property float z_axisz
property float focal
property float scalex
property float scaley
property float centerx
property float centery
property int viewportx
property int viewporty
property float k1
property float k2
end_header
24.319609 57.756664 41.713257
51.996971 57.961136 41.957649
52.662006 57.679356 41.938641
53.48402 57.473866 41.614841
54.309746 57.356258 41.119389
55.706482 57.550617 41.182861
56.169231 57.487141 41.688042
18.875906 58.450985 41.574173
24.589241 58.465027 41.479069
51.740017 58.513145 41.834694
52.399704 58.569267 41.902374
53.538044 58.529724 41.705219
54.092026 58.379265 41.119621
55.82341 58.243172 41.143917
56.215549 58.612106 41.67709
18.656948 59.455643 41.452835
24.903982 59.536728 41.421089
51.548351 59.534962 41.634003
52.490314 59.536488 41.649254
53.418034 59.368214 41.4533
55.889759 59.465069 41.057198
56.242851 59.691166 41.557453
18.520569 60.549969 41.676022
24.931141 60.22525 41.211739
25.05582 60.647591 41.783665
51.623116 60.125149 41.798691
52.636543 60.417778 41.772408
53.197105 60.516811 41.372444
55.994183 60.176579 41.031948
56.274895 60.579483 41.505379
18.748957 61.466572 41.415997
24.89813 61.642151 41.531353
25.076691 61.447784 41.854111
52.881241 61.357162 41.95158
53.32864 61.53801 41.388077
55.816254 61.661247 41.300529
56.174572 61.295452 41.666668
18.996889 62.140507 41.603619
19.338629 62.568195 41.501198
24.771729 62.372181 41.380924
25.13483 62.482197 41.834507
52.954636 62.33567 41.944435
53.520618 62.687096 41.471058
54.450321 62.860909 41.448425
55.283768 62.28981 41.443447
19.826138 63.164753 41.72414
20.428402 63.459282 41.532219
21.503744 63.90221 41.275574
24.935398 63.274261 41.189049
25.399633 63.381863 41.622074
26.073223 63.968506 41.900841
51.756195 63.764633 41.892475
52.377033 63.846634 41.847969
53.688087 63.200294 41.704899
54.237663 63.194027 41.784054
21.822983 64.311401 41.749435
22.186811 64.526115 41.398361
25.842979 64.509048 41.265282
26.308119 64.443825 41.797497
51.589279 64.436569 41.657032
52.522388 64.517509 41.313465
53.208862 64.77697 41.571671
22.262413 65.422813 41.546787
26.630081 65.468201 41.40564
27.322857 65.992622 41.872509
50.656925 65.598938 41.740192
51.407848 65.343216 41.289772
52.723339 65.415634 41.110821
53.205719 65.278442 41.51424
22.603613 66.627655 41.423542
26.848642 66.175018 41.129173
27.331331 66.613503 41.429329
49.817513 66.72171 41.573471
50.325104 66.432747 41.279884
52.607586 66.51992 41.311794
22.87114 67.345711 41.523258
23.26503 67.809647 41.296642
27.655762 67.468803 41.425289
48.942627 67.789558 41.809464
49.437496 67.436043 41.479179
51.921173 67.858215 41.35091
52.213963 67.442856 41.44104
23.779882 68.460518 41.586327
24.382849 68.819565 41.399284
27.746994 68.452782 41.544556
28.432638 68.681084 41.737457
29.472851 68.908859 41.857044
48.896336 68.253578 41.737114
49.427326 68.737091 41.369083
50.318989 68.799149 41.329933
51.422497 68.263374 41.450665
24.850906 69.151321 41.711582
25.597492 69.330818 41.441971
26.557068 69.609749 41.499252
28.560133 69.114113 41.214745
29.63105 69.19561 41.501499
30.342445 69.263168 41.611771
31.530989 69.505135 41.529263
32.51313 69.664871 41.668282
33.036705 69.968842 41.943558
43.766201 69.841347 41.897366
44.35146 69.86087 41.85173
49.565624 69.023323 41.794846
26.968847 70.078972 41.395615
27.242077 70.50119 41.458939
32.787178 70.390083 41.256203
33.178593 70.666298 41.863777
36.868561 70.987358 41.996548
37.173584 70.995415 41.929638
42.939243 70.793777 41.938107
43.573929 70.538528 41.50811
44.469669 70.648483 41.197636
45.510727 70.6754 41.19088
46.531139 70.673332 41.358849
47.396706 70.740845 41.674438
48.258255 70.87941 41.936272
27.855194 71.065048 41.537296
28.411882 71.383743 41.507526
29.521135 71.695816 41.617989
30.484577 71.889717 41.502182
32.858982 71.557037 41.220974
33.372238 71.476067 41.57827
34.40163 71.621841 41.680065
35.390911 71.711731 41.612076
36.511566 71.575851 41.456135
37.566582 71.479576 41.402008
38.180687 71.761932 41.763992
41.649227 71.770256 41.833195
42.446999 71.625763 41.670631
43.500736 71.439682 41.642666
44.443485 71.310463 41.331787
45.522331 71.37075 41.280586
46.49004 71.451622 41.361629
47.476742 71.358696 41.654919
48.208641 71.209969 41.896542
31.641293 72.061981 41.507137
32.459515 72.373993 41.432026
33.432026 72.130615 41.076077
34.620983 72.128166 41.209198
35.513298 72.060425 41.219467
36.150524 72.078537 41.07476
37.830589 72.664177 41.195717
38.360046 72.504318 41.63525
39.573463 72.678658 41.759598
40.513027 72.656883 41.62886
41.477615 72.469933 41.527264
42.59845 72.461884 41.547119
43.08918 72.211197 41.649204
32.81282 73.195625 41.270996
33.379356 73.451714 41.379238
34.413189 73.475487 41.372116
35.62788 73.453789 41.356274
36.514355 73.293587 41.271404
37.525936 73.126236 41.636665
38.562592 73.410225 41.72361
39.443733 73.417282 41.696629
40.518887 73.41468 41.755196
41.491127 73.203987 41.772842
42.124973 73.057037 41.840103
57.373917 16.979317 42.653717
55.879368 17.775959 42.537098
56.481529 17.311296 42.426807
57.220917 17.007166 42.305668
58.499058 17.079704 42.518841
59.70269 17.243795 42.632847
60.474007 17.38501 42.500481
61.371536 17.510729 42.639736
62.452068 17.70553 42.555065
63.567135 17.899233 42.548519
64.034164 17.988131 42.507572
55.645885 18.634138 42.384869
64.373085 18.063316 42.405052
65.503296 18.278208 42.489979
66.75621 18.661232 42.566788
16.454575 19.931061 42.45031
55.75378 19.362759 42.59301
56.133312 19.624992 42.186733
67.29586 19.293106 42.417725
16.83913 20.118942 42.678658
17.499344 20.498678 42.613907
18.160318 20.874115 42.538475
55.94677 20.370588 42.856407
56.257217 20.542116 42.399822
18.670465 21.385071 42.542446
56.235832 21.605934 42.481323
68.559204 21.455484 42.56163
18.802223 22.622639 42.367542
55.951355 22.837961 42.861408
56.189785 22.417301 42.393547
69.318802 22.831083 42.499771
18.41061 23.515247 42.425495
55.848274 23.699089 42.438213
56.053848 23.138876 42.331783
69.763832 23.663876 42.523846
17.987267 24.57649 42.869995
18.114481 24.30681 42.569366
55.692501 24.570768 42.484383
70.364838 24.826696 42.589203
18.182545 25.734064 42.321152
55.672672 25.465151 42.625393
56.079479 25.673443 42.155983
70.661591 25.435396 42.598267
18.257257 26.480856 42.431751
55.93734 26.07897 42.786903
56.203346 26.406677 42.516216
70.941887 26.078894 42.565189
71.097878 26.585894 42.210751
4.4830666 27.778275 42.316986
18.280628 27.392302 42.468605
56.48642 27.341812 42.460884
71.324677 27.648376 42.490623
4.1930103 28.619944 42.474731
18.181192 28.470556 42.591106
56.676098 28.444576 42.257027
71.466927 28.555048 42.215824
4.1491508 29.549421 42.443699
18.226601 29.525961 42.614971
56.699608 29.594055 42.370739
71.53334 29.387135 42.60157
4.1793976 30.339453 42.497002
18.3155 30.466654 42.531944
56.597168 30.483465 42.361877
71.503746 30.762987 42.443558
4.2473917 31.474949 42.381081
18.394045 31.312153 42.496281
56.279724 31.487722 42.477772
70.853043 31.856859 42.3181
71.159286 31.475655 42.289608
4.374083 32.637463 42.565098
18.540016 32.411762 42.708229
55.966942 32.848682 42.104408
56.054779 32.555843 42.571121
69.601814 32.692272 42.237629
70.437828 32.324661 42.569923
4.4849687 33.467873 42.627068
18.70697 33.49062 42.718742
55.961838 33.463196 42.531044
68.754707 33.667278 42.290852
69.358276 33.307304 42.682487
4.6685257 34.696426 42.666836
18.803944 34.410576 42.450325
55.938171 34.449806 42.298149
67.984306 34.814812 42.10125
68.524689 34.450184 42.730064
4.8120284 35.577995 42.490978
18.940203 35.630672 42.474628
55.886555 35.445469 42.350563
67.820763 35.682522 42.496902
68.167892 35.221191 42.827126
4.9345393 36.168678 42.531403
5.1345396 36.708305 42.249031
19.02282 36.623089 42.502674
55.807304 36.565514 42.533176
67.471535 36.485291 42.492592
5.4065375 37.509464 42.464237
19.061216 37.569279 42.549656
55.842281 37.430111 42.423447
56.01844 37.850571 42.687935
66.660477 37.620895 42.366379
67.144928 37.210835 42.563763
5.6537633 38.444332 42.804173
6.4335656 38.679535 42.282021
19.067234 38.443478 42.524326
55.962132 38.011337 42.256298
56.389606 38.549541 42.486065
65.462494 38.657272 42.240513
66.407455 38.291912 42.716732
5.9955063 39.194176 42.97654
6.6609507 39.333931 42.608303
7.2333798 39.670525 42.295715
18.970959 39.813389 42.630985
19.050837 39.318508 42.324047
56.987034 39.040962 42.816578
57.434853 39.420914 42.369942
58.321465 39.833305 42.451694
63.816654 39.927158 42.416752
64.527046 39.577137 42.434864
65.283226 39.182861 42.623489
7.6402292 40.538456 42.444023
18.848633 40.495178 42.547199
58.866806 40.043968 42.542496
59.691055 40.284328 42.699635
60.616577 40.474583 42.361431
61.49445 40.44165 42.540836
62.577198 40.29958 42.704288
63.332321 40.172104 42.70945
64.056816 40.073437 42.888096
7.8906622 41.233044 42.690987
8.2722921 41.734516 42.576336
18.468765 41.53511 42.468052
8.6705894 42.336338 42.641422
9.1283293 42.753094 42.360779
17.695406 42.617752 42.546543
18.076042 42.157406 42.4641
9.6786575 43.408665 42.604073
10.310637 43.770782 42.379116
15.986375 43.932465 42.109917
16.659828 43.657825 42.434044
17.171156 43.253708 42.591358
10.681931 44.12405 42.700512
11.410425 44.323807 42.427635
12.468046 44.723076 42.484921
13.468416 44.871891 42.354591
14.540872 44.741631 42.194267
15.536279 44.506699 42.283386
16.47974 44.382278 42.676189
17.007597 44.017525 42.964512
12.823314 45.074787 42.868443
13.429078 45.255497 42.835419
14.565525 45.462849 42.698032
15.401477 45.520805 42.624947
16.607899 45.455147 42.8559
15.545299 46.330147 42.811466
16.489449 46.470951 42.791565
17.086645 46.522537 42.938282
15.841222 47.472553 42.843353
16.398251 47.422642 42.745457
17.467327 47.696239 42.838928
15.803121 48.343967 42.882214
16.348114 48.575863 42.704048
17.545204 48.591045 42.636974
18.38093 48.710335 42.808075
19.053873 48.964653 42.98539
15.788411 49.501797 42.884571
16.465107 49.582085 42.600494
17.524515 49.526165 42.457485
18.48103 49.613403 42.452988
19.504406 49.731617 42.500381
20.345713 49.907993 42.635826
54.574287 49.859421 42.650959
55.477745 49.879192 42.32254
56.171658 49.90778 42.746288
15.730255 50.557602 42.77565
16.439053 50.605808 42.423714
17.528839 50.384995 42.251171
18.376217 50.121853 42.19693
20.618891 50.110928 42.378357
21.623526 50.667801 42.600994
52.905411 50.922615 42.74752
53.46077 50.403809 42.51395
54.144005 50.042618 42.401886
56.673195 50.133999 42.586025
57.326241 50.481056 42.550652
58.004738 50.769905 42.973534
14.885855 51.94022 42.953262
15.562625 51.498585 42.414562
16.360975 51.237926 42.096188
21.907349 51.012016 42.35833
22.189602 51.34853 42.579086
52.646973 51.539909 42.342525
58.607658 51.397301 42.611092
59.081116 51.965996 42.738098
14.83917 52.425854 42.931824
15.327076 52.635853 42.352089
22.759674 52.644169 42.612438
52.265671 52.459602 42.491909
58.932899 52.171661 42.198776
59.201405 52.628201 42.444912
14.925371 53.345554 42.964119
15.274798 53.397655 42.567738
22.870699 53.439644 42.484814
23.084023 53.684669 42.853859
52.259064 53.526909 42.452271
58.967861 53.806473 42.035656
59.247616 53.348629 42.46357
15.328664 54.340015 42.488987
22.848768 54.489014 42.296803
23.159042 54.466885 42.731842
52.603249 54.518242 42.417858
53.076042 54.94479 42.016541
58.798428 54.631824 42.139652
59.174458 54.472649 42.758812
15.637466 55.527885 42.42054
22.600033 55.469143 42.241482
23.353714 55.627548 42.635384
52.808647 55.347054 42.673496
53.158844 55.548859 42.127556
57.942768 55.901176 42.267982
58.467361 55.484726 42.545811
15.941011 56.163414 42.79538
16.372393 56.521042 42.427002
22.571043 56.280411 42.138817
23.52174 56.505898 42.426788
24.130058 56.721539 42.771423
52.559742 56.539906 42.668636
53.10495 56.308647 42.112137
56.746288 56.901833 42.42667
57.548119 56.295155 42.491905
58.070404 56.004658 42.710564
16.89205 57.107403 42.783905
17.474279 57.520405 42.623672
18.41634 57.799213 42.307041
23.908911 57.126038 42.10289
24.457483 57.446358 42.42474
25.013065 57.861412 42.942558
51.643433 57.691357 42.532497
52.321205 57.491913 42.132885
56.636166 57.333008 42.538158
17.746262 58.434895 42.912384
18.603003 58.465141 42.62841
24.937738 58.399097 42.395248
25.138172 58.615528 42.705906
50.97187 58.843872 42.764244
51.342663 58.412518 42.322632
52.805408 58.512703 42.029331
53.164223 58.583893 42.029751
56.541321 58.325123 42.336391
17.847042 59.450016 42.978271
18.265007 59.316738 42.563946
25.256834 59.458221 42.62484
50.919678 59.487762 42.745983
51.08284 59.485947 42.268581
56.708595 59.513977 42.495014
17.957319 60.22665 42.913784
18.212799 60.535999 42.510124
25.303991 60.613472 42.418465
51.436317 60.523029 42.380375
52.35767 60.825661 42.212761
56.681427 60.6087 42.507236
18.466957 61.500938 42.490479
25.476604 61.526196 42.508087
51.701328 61.574764 42.707912
52.41259 61.318703 42.347393
55.932159 61.895729 42.013317
56.36219 61.487602 42.519539
18.832758 62.344868 42.521275
19.177294 62.822906 42.530075
25.690174 62.476601 42.48423
26.141872 62.767433 42.83284
51.595554 62.471523 42.771946
52.517982 62.501762 42.246574
54.937134 62.860764 42.221306
55.55645 62.481411 42.663078
56.082592 62.050652 42.938293
19.634548 63.238338 42.504929
20.318222 63.656425 42.402225
25.847021 63.158916 42.261822
26.54126 63.481461 42.698174
27.002771 63.87529 42.842319
50.866444 63.519287 42.726521
51.520061 63.473633 42.273544
52.723061 63.395641 42.24939
53.563522 63.645859 42.397881
54.356121 63.316032 42.362385
55.029312 63.000076 42.984676
20.934557 64.057541 42.797852
21.589008 64.494102 42.466488
22.002062 64.999359 42.072853
26.742867 64.266121 42.337673
27.309511 64.577454 42.696064
49.877388 64.914902 42.835224
50.516617 64.444084 42.543293
51.051331 64.56237 42.027454
53.484631 64.494141 42.530952
21.877651 65.458092 42.623264
22.053171 65.59198 42.253353
27.574047 65.42038 42.548252
49.562809 65.446526 42.771999
50.343555 65.310829 42.213524
53.451893 65.335442 42.491798
21.97554 66.03772 42.967617
22.193781 66.339996 42.55172
27.858906 66.482056 42.351387
28.112595 66.611122 42.770199
48.685848 66.652039 42.741978
49.359524 66.495552 42.24012
52.887794 66.602623 42.381622
53.107784 66.349266 42.819939
22.663927 67.446205 42.495537
27.958441 67.359695 42.154339
28.319242 67.535027 42.740219
29.452732 67.852921 42.905289
48.490364 67.458298 42.574036
51.987106 67.946609 42.649963
52.381172 67.478333 42.515118
23.53319 68.530327 42.585716
24.100029 68.944839 42.426983
28.505142 68.225456 42.277271
29.548077 68.390663 42.445633
30.472246 68.549484 42.47604
31.458071 68.623055 42.61377
32.455719 68.82769 42.770252
48.607407 68.503868 42.502911
49.137997 68.987328 42.110016
50.59473 68.777306 42.372929
51.513992 68.275536 42.4552
24.672979 69.245987 42.577923
25.47603 69.426796 42.487881
26.59409 69.573593 42.499805
27.030645 69.885857 42.562477
30.877331 69.021225 42.045868
31.579243 69.072449 42.116684
32.758366 69.271927 42.364372
33.170685 69.699158 42.493206
42.766468 69.758354 42.762249
43.482067 69.508072 42.498455
44.431541 69.447197 42.418587
45.466278 69.614426 42.418034
46.406342 69.675385 42.544846
47.55637 69.656151 42.711834
48.560802 69.486275 42.752865
49.322418 69.384605 42.605961
50.141266 69.027588 42.613243
27.433191 70.440071 42.468388
28.02734 70.966606 42.731735
33.547989 70.468613 42.337154
34.429588 70.714096 42.576218
35.359531 70.74852 42.592785
36.528412 70.640808 42.492931
37.588257 70.634598 42.607021
38.172623 70.8498 42.819359
41.676895 70.599258 42.747944
42.644825 70.357796 42.35334
43.091232 70.189423 42.117111
47.624012 70.199226 42.208019
48.685112 70.671326 42.272785
49.182568 70.668869 42.691017
28.553511 71.35672 42.391476
29.381737 71.605743 42.49184
30.51123 71.859383 42.291737
31.281204 71.955215 42.569698
33.965916 71.04126 42.068481
34.614555 71.16539 42.163761
35.309528 71.250565 42.12307
37.884827 71.012543 42.197823
38.441364 71.433174 42.359432
39.580879 71.695969 42.61459
40.631176 71.566338 42.621815
41.395199 71.39209 42.333542
42.157494 71.137146 42.078011
43.715157 71.827408 42.38855
44.209873 71.707924 42.543636
45.665043 71.652771 42.44482
46.610394 71.653183 42.389133
47.651611 71.594551 42.313259
48.549881 71.30162 42.405807
49.032307 71.038979 42.751263
31.705336 72.04776 42.438789
32.392876 72.429794 42.444843
38.72187 72.067871 42.076485
39.445656 72.198204 42.131557
40.324364 72.085602 42.159004
42.720657 72.809502 42.488579
43.382442 72.279152 42.505985
32.900772 73.11145 42.203159
33.38065 73.286552 42.539948
34.352467 73.401291 42.381588
35.376213 73.357628 42.523952
36.40081 73.267662 42.471615
37.547798 73.232292 42.520546
38.480686 73.736198 42.368412
39.393368 73.816772 42.326916
40.430595 73.607468 42.336567
41.480892 73.329956 42.409824
42.165298 73.108521 42.509792
57.663818 16.92437 43.527477
58.445187 16.952742 43.474255
55.831097 17.924625 43.448833
56.398472 17.453972 43.40387
57.127705 17.071838 43.416424
59.700546 17.128044 43.407776
60.604378 17.236952 43.622086
62.550312 17.594786 43.490658
63.615063 17.787022 43.439163
64.242165 17.871929 43.678867
55.524529 18.443657 43.530354
64.640137 18.007095 43.243683
66.815475 18.594875 43.175266
55.470184 19.597801 43.341675
16.900576 20.266508 43.175106
17.727541 20.888727 43.291695
55.507179 20.585688 43.578537
68.351013 20.976681 43.873348
17.698275 21.061186 43.677849
18.539358 21.657598 43.416344
55.576672 21.573236 43.590488
68.442184 21.192642 43.27047
18.788263 22.294395 43.492767
55.714661 22.459448 43.416668
69.283279 22.714102 43.178188
18.788568 23.676235 43.285553
55.573009 23.456509 43.540455
69.689087 23.446079 43.506531
17.988791 24.601967 43.064178
18.533209 24.399893 43.436111
55.372025 24.469442 43.368095
70.218361 24.467871 43.630398
17.964952 25.887074 43.181065
18.351776 25.218884 43.928024
54.978706 25.475389 43.964947
55.270683 25.658323 43.465385
70.813065 25.725805 43.446953
17.989887 26.484531 43.636185
18.032398 26.512724 43.445339
55.709652 26.202255 43.621677
56.125385 26.597567 43.494942
70.957069 26.089315 43.639404
71.083916 26.550667 43.216793
17.865133 27.652706 43.563606
18.043514 27.376553 43.156658
56.392708 27.509903 43.555683
71.280838 27.508125 43.523636
4.211422 28.508198 43.227924
18.020668 28.307716 43.059326
56.490967 28.443336 43.517673
71.40229 28.28965 43.339878
4.1887836 29.559437 43.535492
18.09568 29.490864 43.419426
56.478325 29.396057 43.591393
71.533867 29.589888 43.370121
18.21682 30.510216 43.584164
56.385811 30.400305 43.612274
71.533829 30.44068 43.481243
4.2738676 31.337486 43.264591
18.350637 31.429039 43.659706
56.198025 31.707647 43.516911
70.922241 31.978703 43.399586
71.242416 31.309193 43.568413
4.4052458 32.552635 43.378983
18.549925 32.504757 43.44754
56.094566 32.518272 43.381805
70.556931 32.563324 43.368011
4.5087543 33.374725 43.440941
18.716335 33.462646 43.413551
55.987114 33.880676 43.540108
56.023102 33.291775 43.475975
69.647728 33.640865 43.390606
70.14463 33.272938 43.606033
4.6543937 34.379673 43.499371
18.749323 34.39843 43.55228
55.950279 34.434166 43.523907
68.771698 34.570564 43.306042
69.322861 34.292141 43.74622
4.833529 35.495602 43.399872
18.853718 35.679295 43.450809
55.891914 35.517189 43.396206
68.436806 35.38924 43.595619
4.9974823 36.350666 43.334648
18.906086 36.562675 43.680035
19.018501 36.944305 43.054935
55.903263 36.597191 43.399036
56.014458 36.952179 43.763378
67.784889 36.57906 43.272881
68.05722 36.404854 43.890465
5.2915406 37.681606 43.270752
18.959253 37.263428 43.731209
19.0343 37.559093 43.289352
55.916718 37.128769 43.133842
56.156353 37.650478 43.445972
67.416443 37.5476 43.485664
5.5152926 38.622814 43.186111
18.981602 38.507652 43.749779
19.035501 38.283707 43.305145
56.618595 38.394363 43.54845
57.114269 38.896893 43.794785
66.678093 38.59959 43.431393
67.045197 38.320995 43.723499
5.7635756 39.443523 43.460491
6.3071313 39.71516 43.193001
18.933674 39.511616 43.491184
19.007854 39.022808 43.114498
57.71735 39.421093 43.712864
58.50161 39.877323 43.620361
65.510597 39.629734 43.389175
66.262794 39.205875 43.664341
5.9473953 40.16143 43.947311
6.5633879 40.475773 43.539478
7.091836 40.693508 43.255886
18.769314 40.495625 43.371986
58.854385 40.084518 43.785843
59.474342 40.281429 43.572502
60.459919 40.511547 43.429638
61.479813 40.588821 43.245697
62.495365 40.732525 43.282951
63.490356 40.544388 43.321251
64.45858 40.363831 43.599239
65.045105 40.06955 43.608505
6.7273307 41.23917 43.820286
7.3034325 41.350086 43.511768
8.1202564 41.876572 43.042812
18.459932 41.452854 43.454224
60.64386 41.130936 43.942734
61.657772 41.269035 43.782032
62.370022 41.202309 43.717533
7.7594156 42.113396 43.76572
8.401824 42.579506 43.44701
17.833704 42.623783 43.182117
18.087612 42.364277 43.558384
8.8049488 43.121262 43.581696
9.4748278 43.642357 43.379715
17.530817 43.510464 43.325283
9.8667889 44.241943 43.807106
10.539403 44.538086 43.522694
11.403863 44.756489 43.264553
12.086195 44.965317 43.201744
16.957256 44.848351 43.019066
17.502417 44.52383 43.476902
10.960109 45.042255 43.792526
11.649301 45.275059 43.661388
12.440905 45.392166 43.47694
13.449261 45.742626 43.336689
14.271091 45.862202 43.076847
16.996099 45.084251 43.041996
17.454603 45.483612 43.345798
18.136845 45.618507 43.938633
12.74959 46.062889 43.958336
13.542843 46.311298 43.776054
14.426224 46.617111 43.478977
15.349123 46.904305 43.008659
17.461798 46.465454 43.15062
18.360607 46.655106 43.755505
14.448246 47.379368 43.738979
15.28608 47.513889 43.135719
17.679773 47.144058 43.077286
18.564697 47.505569 43.532742
19.191404 47.738213 43.931286
14.582554 48.438026 43.745617
15.234166 48.508572 43.245667
18.754044 48.495392 43.109917
19.361912 48.553997 43.48539
14.6141 49.550903 43.734524
15.115598 49.60236 43.317978
19.776674 49.248779 43.165665
20.507605 49.525063 43.380424
21.304438 49.84481 43.84565
53.78907 49.892879 43.599205
54.503624 49.644375 43.534916
55.512951 49.563889 43.579891
56.401867 49.769917 43.623417
57.051594 49.967987 43.868126
14.573693 50.405293 43.723862
15.292596 50.488113 43.081707
21.591255 50.323601 43.46484
52.870216 50.697212 43.672989
53.29007 50.266827 43.48518
56.963963 50.090958 43.33617
57.609863 50.31403 43.71904
58.475822 50.807861 43.659904
14.564764 51.540092 43.501091
15.056372 51.329777 43.01469
22.489319 51.610069 43.319683
52.497051 51.425327 43.483536
58.828053 51.146046 43.309322
59.277576 51.313164 43.704113
14.488073 52.516125 43.350113
22.914946 52.532188 43.392513
23.092979 52.928524 43.53371
52.21637 52.406425 43.422337
59.573044 52.492619 43.44408
14.522627 53.510685 43.35569
15.059061 53.990952 43.001789
23.315746 53.592403 43.55024
52.181103 53.564671 43.646259
59.700821 53.5923 43.549744
14.644336 54.455223 43.517723
15.071636 54.530296 43.119034
23.581934 54.558411 43.426861
52.355186 54.551128 43.499203
59.517376 54.36869 43.488091
14.765537 55.26384 43.796177
15.29282 55.580753 43.421619
23.823725 55.449459 43.214916
24.208298 55.770897 43.577435
52.410042 55.605083 43.495628
58.724316 55.727715 43.443199
59.145508 55.307087 43.669819
15.662482 56.439651 43.612953
16.215946 56.7887 43.342579
24.43791 56.462917 43.347744
51.759724 56.633129 43.637764
52.207485 56.350636 43.338928
56.99527 56.973694 43.008514
57.490879 56.729027 43.494625
58.250507 56.234432 43.690559
15.910815 57.189095 43.870911
16.498692 57.40564 43.445934
17.142448 57.808449 43.083378
24.838339 57.211365 43.240616
25.199781 57.565735 43.578857
50.912781 57.970989 43.708298
51.264488 57.433746 43.508976
56.883575 57.548531 43.420967
57.095665 57.320339 43.749653
16.722267 58.45602 43.661991
17.268776 58.516979 43.204044
25.554516 58.593418 43.502972
50.821072 58.596611 43.453297
56.902916 58.309143 43.278843
57.080994 58.370743 43.806244
16.895018 59.236767 43.891357
17.367105 59.546318 43.457996
25.687166 59.490849 43.315281
26.13938 59.778076 43.85849
50.725555 59.465851 43.445412
56.959091 59.229019 43.108322
57.127686 59.473579 43.539818
17.612392 60.415195 43.488274
25.848362 60.38517 43.232033
26.311954 60.596096 43.725807
50.768608 60.579037 43.648029
51.066963 60.840195 43.157494
56.939308 60.706348 43.290714
57.058128 60.516834 43.595097
17.873482 61.242611 43.749897
18.206224 61.560886 43.41436
25.964561 61.327858 43.125183
26.434118 61.533703 43.531643
27.05978 61.88842 43.934448
50.782429 61.60025 43.77425
51.137836 61.622871 43.348427
56.650574 61.500099 43.492256
18.738373 62.500034 43.549042
19.09712 62.920124 43.329388
26.552141 62.482944 43.343243
27.247501 62.70863 43.764511
50.597015 62.497517 43.547901
51.211269 62.288944 43.195324
55.631744 62.636429 43.402111
56.165676 62.228832 43.682968
19.614653 63.395672 43.521297
20.344692 63.876991 43.562035
26.849308 63.084221 43.267681
27.552446 63.455456 43.622612
28.138861 63.860714 43.906803
48.992306 63.800362 43.910313
49.467545 63.539337 43.725224
50.363415 63.386578 43.198326
53.869156 63.884701 43.643612
54.456879 63.454597 43.442184
55.114944 63.044937 43.494667
20.785624 64.177322 43.60833
21.286726 64.703918 43.373177
27.753523 64.466553 43.275566
28.318501 64.605316 43.848316
48.712139 64.625595 43.802471
49.638889 64.363167 43.262089
50.195972 64.03038 43.013298
53.679745 64.345299 43.491676
21.555359 65.484207 43.452557
28.366182 65.534401 43.62339
48.424183 65.569176 43.624809
49.067352 65.682678 43.02216
53.542419 65.528473 43.557209
21.876345 66.221336 43.664368
22.118526 66.606445 43.406048
28.588926 66.493248 43.493748
29.31546 66.620872 43.720726
30.550697 66.739624 43.798801
31.246731 66.875916 43.950867
47.878223 66.474884 43.766998
48.194561 66.521843 43.318485
52.967468 66.895706 43.607464
53.242107 66.326019 43.505272
22.609179 67.57338 43.496178
28.578436 67.253792 43.133129
29.304707 67.311699 43.274048
30.602999 67.419785 43.381119
31.591413 67.566353 43.603729
32.248798 67.818291 43.792374
47.778206 67.632217 43.749084
48.102818 67.470177 43.210667
52.487621 67.610222 43.56477
22.881269 68.068413 43.917347
23.417278 68.579338 43.550735
31.727083 68.177109 43.144871
32.714901 68.517448 43.439281
33.313507 68.734184 43.781704
34.556755 68.912247 43.915569
35.432922 68.758476 43.960163
36.081268 68.973221 43.856602
42.740078 68.840271 43.744888
43.547733 68.688034 43.59351
44.399326 68.703079 43.477196
45.453484 68.623528 43.721336
46.550106 68.754791 43.739452
47.646942 68.524933 43.655834
48.1353 68.512924 43.2612
50.528507 68.978622 43.565239
51.639523 68.298027 43.387913
52.005219 68.106979 43.927849
23.972298 69.015366 43.774891
24.441647 69.219719 43.526409
25.516674 69.490059 43.548038
26.651838 69.481491 43.490414
27.098783 69.751816 43.584507
33.469326 69.375191 43.341972
34.368813 69.588081 43.499161
35.559006 69.555046 43.497696
36.610703 69.49498 43.580635
37.431683 69.715088 43.704853
38.083733 69.959938 43.972698
40.974651 69.863953 43.903061
41.638802 69.520103 43.764412
42.338791 69.443962 43.363819
43.246307 69.084763 43.182423
44.481682 69.064011 43.010658
45.505501 69.162933 43.051052
46.775963 69.137054 43.297016
47.62785 69.145103 43.201099
48.095001 69.094978 43.082397
49.691166 69.657707 43.413937
50.141994 69.239441 43.64819
27.533957 70.335686 43.484638
28.099197 70.873222 43.579906
33.985451 70.068924 43.05756
34.555233 70.154564 43.104969
35.565098 70.214355 43.038666
36.745861 70.100044 43.077877
37.730011 70.280716 43.232861
38.388416 70.494804 43.525639
39.534233 70.719894 43.743649
40.504128 70.613708 43.597286
41.400879 70.292564 43.211597
48.847454 70.975662 43.847816
49.309689 70.507034 43.383633
28.529243 71.18277 43.314171
29.34133 71.464203 43.47868
30.673061 71.736237 43.598408
31.678802 71.833305 43.561821
32.190437 71.911636 43.779465
38.794846 71.047745 43.083885
39.621296 71.205444 43.222
40.213879 71.181534 43.228474
43.786854 71.764336 43.553604
44.265125 71.636818 43.414326
45.601791 71.592285 43.414917
46.53828 71.562164 43.466331
47.587627 71.46273 43.494621
48.538868 71.2229 43.487556
31.946152 72.015877 43.152973
32.384766 72.21978 43.380123
33.18684 72.864212 43.615116
36.779228 72.941551 43.786327
37.508583 72.883095 43.807312
42.614666 72.738228 43.482601
43.260899 72.263756 43.342834
33.576004 73.114998 43.362705
34.55299 73.209114 43.393147
35.513325 73.156181 43.578838
36.339085 73.085312 43.532063
37.652111 73.162987 43.437092
38.433315 73.682419 43.539654
39.373802 73.796936 43.515865
40.37019 73.562607 43.532833
41.68079 73.188004 43.467094
42.096832 73.042229 43.481869
57.792542 16.892193 44.309605
58.492695 16.815432 44.435051
59.494026 16.865015 44.583427
60.116089 16.955439 44.625374
55.982101 17.886351 44.490005
56.65567 17.384953 44.286293
57.224468 17.078268 44.279419
60.420372 17.079441 44.314632
61.535927 17.222385 44.587753
62.534927 17.423096 44.467434
63.406311 17.559164 44.604607
64.260857 17.775738 44.329521
55.483055 18.524698 44.3703
67.212677 18.982328 44.075943
55.340466 19.217062 44.457352
67.359619 19.142378 44.945381
55.288506 20.516121 44.376129
68.254097 20.740627 44.62719
55.287514 21.510426 44.25008
68.429787 21.05846 44.527317
55.239483 22.525795 44.498936
54.983818 23.945547 44.982738
55.202282 23.483555 44.47596
18.791031 24.724018 44.092773
54.918365 24.762762 44.620647
55.165298 24.24894 44.164146
70.159264 24.263901 44.73848
18.561987 25.498938 44.215946
54.82724 25.572638 44.481888
55.028721 25.90929 44.177605
18.25079 26.525894 44.326878
54.857971 26.233406 44.852001
55.511917 26.43985 44.578114
56.055702 26.853842 44.453541
70.949593 26.074112 44.136238
71.066742 26.507362 44.075623
18.241905 27.109268 44.56134
55.968933 27.10725 44.981133
56.206409 27.40486 44.627609
71.302414 27.742411 44.388275
56.364773 28.467926 44.616123
71.405296 28.494186 44.292206
17.945658 29.967947 44.826336
56.362488 29.362514 44.609825
71.479866 29.501793 44.460388
4.2557487 30.518246 44.329987
17.976738 30.112782 44.69788
18.110651 30.457287 44.489006
56.254837 30.609785 44.627266
71.461952 30.566862 44.511108
4.4043274 31.996447 44.64003
18.280722 31.389208 44.407593
56.173054 31.478662 44.509777
71.26297 31.254948 44.386192
18.478214 32.529095 44.556973
56.072224 32.629452 44.42448
70.751541 32.66407 44.609287
18.616674 33.452465 44.565933
55.977993 33.792633 44.386936
56.016983 33.276329 44.450573
70.4133 33.53904 44.526768
4.6615906 34.04789 44.450031
18.654543 34.457066 44.480759
55.923946 34.575356 44.430241
69.64859 34.605587 44.51804
70.249199 34.228973 44.884026
4.82304 35.075516 44.448799
18.730461 35.596531 44.293709
55.899139 35.403206 44.548958
68.707817 35.615238 44.385063
69.357574 35.144779 44.798195
4.9929771 36.090576 44.325119
5.0989799 36.522896 44.834572
18.78986 36.520424 44.431313
55.947746 36.182831 44.473011
56.039753 36.745945 44.364716
67.997093 36.868149 44.535351
68.320099 36.292854 44.481308
5.1729965 37.045376 44.204643
18.834461 37.366966 44.591202
56.29232 37.500267 44.491795
67.583389 37.592052 44.42561
5.4921055 38.564373 44.588371
18.909119 38.481865 44.330231
56.768871 38.437187 44.530514
57.089603 38.84362 44.413826
66.865387 38.739574 44.445274
67.107414 38.397472 44.504433
5.7453895 39.672779 44.276417
18.858778 39.578854 44.328094
57.517002 39.34655 44.344868
58.111008 39.790958 44.029499
65.897789 39.820705 44.468342
66.292755 39.448074 44.492565
5.9118142 40.280952 44.355228
6.1199484 40.781651 44.360062
18.699255 40.668793 44.399105
57.919319 40.274467 44.733284
58.407665 40.535694 44.480976
59.342979 40.74897 44.126446
64.505341 40.763649 44.394543
65.39093 40.258007 44.508083
6.4502144 41.450798 44.43924
7.1861095 41.872711 44.097836
18.52949 41.572098 44.585522
58.553364 41.290218 44.775902
59.490559 41.492531 44.455063
60.453018 41.585396 44.284042
61.525684 41.710827 44.294296
62.387821 41.643833 44.384033
63.474922 41.339558 44.571903
64.044754 41.208725 44.906105
6.9187737 42.082199 44.667419
7.4892941 42.437077 44.473064
8.1108551 42.79599 44.167313
18.372744 42.398006 44.51955
58.810852 42.5098 44.914562
59.498867 42.439171 44.758881
60.508533 42.365948 44.712151
61.36607 42.186245 44.753807
62.0718 42.136173 44.991581
7.8929176 43.034874 44.784401
8.5496397 43.502895 44.572239
9.1384916 43.857185 44.268677
18.316387 43.48983 44.547577
59.556847 43.278954 44.933338
60.147591 43.086811 44.955585
9.6335602 44.473679 44.600807
10.289768 44.862892 44.334488
18.341513 44.554771 44.463291
10.65004 45.185051 44.457718
11.460193 45.740013 44.4753
12.187821 45.889214 44.082245
18.603024 45.469719 44.547241
11.717398 46.097069 44.744713
12.554982 46.395935 44.391632
13.304371 46.756004 44.202682
18.685324 46.364449 44.226662
19.188789 46.581421 44.722496
57.902897 46.988441 44.994671
12.827215 47.07988 44.80077
13.503911 47.472439 44.4818
14.032673 47.515697 44.095837
19.451235 47.512913 44.368191
20.047255 47.790894 44.874535
56.572224 47.868614 44.882496
57.37431 47.601555 44.873829
58.589802 47.613163 44.937389
59.004578 47.710609 44.997742
13.576787 48.375446 44.731663
14.154951 48.655495 44.141384
19.649452 48.058945 44.140221
20.486082 48.554115 44.621193
21.003954 48.870426 44.974804
54.533428 48.896973 44.921715
55.556068 48.635235 44.745415
56.591633 48.50523 44.634789
57.469963 48.489525 44.645657
58.484795 48.400311 44.788208
59.082996 48.571758 44.903809
13.71098 49.384384 44.70647
14.06216 49.610611 44.274918
20.783802 49.221474 44.130272
21.476192 49.663116 44.551674
53.611435 49.664165 44.6311
54.502151 49.291561 44.474529
55.486324 49.255341 44.234955
56.546989 49.4748 44.221748
57.543465 49.615753 44.305206
58.421837 49.531387 44.53685
59.206909 49.48296 44.85239
13.739776 50.481289 44.726349
14.078856 50.712334 44.221149
21.84478 50.137577 44.454094
22.206982 50.596748 44.608253
52.780067 50.5578 44.60321
53.251816 50.143051 44.161552
57.795761 50.137188 44.127934
58.609699 50.487118 44.297279
59.303295 50.71006 44.596016
13.840023 51.57951 44.564255
14.077253 51.565491 44.13699
22.654032 51.453674 44.467735
52.318726 51.501255 44.546425
59.705006 51.410316 44.510338
13.886334 52.345123 44.538967
14.06254 52.343098 44.087627
22.895935 52.050865 44.235703
23.169006 52.539177 44.630711
51.918873 52.731312 44.900795
52.080357 52.511276 44.44762
59.951111 52.408604 44.645252
60.009388 52.541187 44.912102
13.952815 53.370777 44.568035
14.08251 53.516724 44.160927
23.531511 53.535278 44.411243
51.901768 53.543541 44.638695
52.073624 53.569092 44.196945
59.893745 53.470379 44.443222
14.195301 54.542774 44.396412
23.844885 54.321587 44.345844
24.118036 54.844147 44.448364
51.722717 54.500183 44.724854
52.09272 54.578217 44.097675
59.679855 54.505341 44.425831
14.579309 55.489834 44.301548
24.524725 55.56501 44.46769
51.643539 55.517586 44.482224
58.878868 55.854568 44.413311
59.292732 55.346241 44.504391
14.850712 56.202576 44.612904
15.17263 56.599926 44.459194
24.878969 56.338207 44.264202
25.214212 56.643223 44.66045
50.954365 56.507179 44.829292
51.369789 56.397423 44.347561
57.719677 56.861919 44.438343
58.212185 56.547638 44.641136
15.67978 57.338879 44.416962
16.092445 57.841385 44.153717
25.553606 57.41832 44.50388
50.63567 57.532177 44.693275
51.14706 57.097317 44.079449
57.356495 57.485802 44.425144
15.969639 58.144058 44.868824
16.339094 58.561996 44.418533
25.894806 58.144981 44.512218
26.200695 58.681297 44.664642
50.363945 58.563496 44.665207
57.381916 58.323425 44.728889
16.773081 59.53949 44.393105
17.033966 59.852974 44.053127
26.397041 59.428116 44.435226
49.933372 59.828239 44.866959
50.30732 59.495781 44.485909
57.389385 59.599167 44.418819
16.922827 60.210567 44.654202
17.175137 60.545147 44.382286
26.74255 60.429077 44.316132
27.128141 60.549328 44.714951
49.82901 60.438274 44.822666
50.350464 60.404434 44.336491
57.271107 60.635551 44.482185
17.640049 61.583347 44.687103
18.105902 61.892899 44.38797
27.458755 61.514977 44.443752
28.20142 61.824554 44.867249
49.552059 61.617702 44.743893
50.278767 61.536057 44.233463
56.736622 61.681908 44.232849
57.059052 61.208263 44.450611
17.92765 62.084625 44.841888
18.414303 62.452759 44.614445
19.008312 62.97953 44.34552
27.77268 62.458111 44.194817
28.475489 62.490089 44.648239
29.141525 62.904327 44.852535
48.689056 62.634678 44.755844
49.538742 62.343277 44.382042
50.190895 62.127449 44.075573
55.730026 62.768532 44.341728
56.189766 62.424652 44.502377
18.891844 63.070099 44.754223
19.528851 63.58379 44.570343
20.125086 63.916229 44.188965
27.907265 63.167 44.013615
28.432621 63.379894 44.254902
29.472223 63.457363 44.806782
47.918053 63.762356 44.80896
48.526028 63.493488 44.374283
49.165699 63.105808 44.125271
53.928905 63.956337 44.247162
54.335278 63.645786 44.548664
55.254395 63.096355 44.507698
19.879272 64.284874 44.848797
20.405478 64.453026 44.370663
28.645941 64.43158 44.128201
29.557495 64.5196 44.550098
30.506657 64.690933 44.865356
47.694958 64.678833 44.681934
48.22979 64.292969 44.300049
53.865841 64.502632 44.51963
54.027985 64.185738 44.924286
20.793385 65.293976 44.599159
21.251234 65.658707 44.31987
28.79353 65.492935 44.09074
29.407814 65.509834 44.327568
30.562588 65.399895 44.658913
31.385874 65.603493 44.824917
47.476379 65.558258 44.577541
53.658901 65.41658 44.485184
21.69339 66.361275 44.504276
22.053322 66.815903 44.198391
29.492191 66.096024 44.069164
30.464594 66.227715 44.128311
31.582834 66.496078 44.374298
32.52219 66.551636 44.829865
33.09441 66.892075 44.923634
34.71183 66.936539 44.976074
35.241867 66.933655 44.96489
44.57793 66.918549 44.957932
45.329369 66.790894 44.968506
46.671135 66.589211 44.900673
47.321865 66.343323 44.517792
53.22509 66.507088 44.486198
22.487587 67.602417 44.527771
31.950249 67.13028 44.14262
32.654354 67.506439 44.345181
33.45969 67.545769 44.649872
34.599274 67.432724 44.70546
35.496094 67.396179 44.716721
36.440506 67.634941 44.865353
42.703053 67.8694 44.773613
43.513893 67.570389 44.730278
44.391483 67.624992 44.505051
45.43449 67.56118 44.570457
46.614601 67.574883 44.575333
47.312176 67.548302 44.263294
52.542938 67.58255 44.47036
22.90044 68.146942 44.427479
23.498152 68.705559 44.597507
32.89333 68.027031 44.120049
33.580688 68.373009 44.16983
34.364197 68.278923 44.271343
35.533112 68.389565 44.165173
36.526684 68.44458 44.339828
37.490757 68.646111 44.771423
38.081524 68.893181 44.961311
39.572731 68.789337 44.942551
40.536266 68.684776 44.859608
41.414707 68.631371 44.699577
42.454678 68.303345 44.445377
43.433746 68.202454 44.163658
44.498238 68.128586 44.116337
45.48653 68.172523 44.181576
46.567356 68.213577 44.227261
47.200302 68.213867 44.119225
50.818512 68.850861 44.487843
51.495129 68.453941 44.42852
52.112755 68.02417 44.832664
23.974138 69.024223 44.561668
24.517927 69.231934 44.483639
25.596821 69.503296 44.473286
26.466108 69.65728 44.502895
27.130619 69.892845 44.246521
37.655602 69.30191 44.312416
38.464836 69.442429 44.635452
39.450291 69.578384 44.565434
40.576389 69.522438 44.331039
41.358746 69.19648 44.246578
49.814869 69.684952 44.518276
50.174446 69.283119 44.483028
27.538523 70.277061 44.558857
28.239304 70.838379 44.573704
38.726124 70.046745 44.213612
39.414619 70.230103 44.162262
40.344589 70.113129 44.04361
48.712379 70.739929 44.625053
49.247837 70.421989 44.442783
28.74563 71.138992 44.496502
29.322353 71.329323 44.69833
30.630262 71.610542 44.600323
31.614216 71.5186 44.526558
32.300507 71.573174 44.541161
43.545673 71.726929 44.526649
44.313828 71.474686 44.507183
45.579079 71.424454 44.477844
46.518436 71.360878 44.562649
47.493061 71.214539 44.516743
48.228287 71.08902 44.299133
32.805191 72.175827 44.315441
33.415936 72.681488 44.436817
34.368473 72.886772 44.659599
35.746559 72.864349 44.573631
36.561043 72.716461 44.507168
37.611744 72.611687 44.543304
38.061287 72.88121 44.729729
41.802319 72.916954 44.679539
42.441406 72.528564 44.532578
43.103096 72.119324 44.227486
34.367199 73.041435 44.085705
35.277649 73.04921 44.07457
37.986336 73.108871 44.160526
38.486488 73.3862 44.444969
39.428276 73.570511 44.448223
40.533226 73.30336 44.610332
41.385735 73.101402 44.565487
68.085983 20.380035 45.18087
55.084274 22.491657 45.127621
69.145248 22.248507 45.738987
54.915421 23.891388 45.398968
55.015141 23.278 45.24398
54.839359 24.492294 45.309284
70.159607 24.181801 45.572433
54.724407 25.542545 45.376694
54.771145 26.592365 45.467449
55.413456 26.716234 45.130672
54.752705 27.298309 45.836838
55.497669 27.442833 45.420177
56.080505 27.811598 45.137726
54.828888 28.095049 45.988197
55.564442 28.505146 45.726948
56.163612 28.535828 45.202396
71.377258 28.501005 45.25407
55.700871 29.415579 45.755768
56.214867 29.56094 45.299122
71.445053 29.410686 45.579063
18.069302 30.743137 45.011086
55.826523 30.559097 45.552906
56.16222 30.340736 45.233822
71.446648 30.520712 45.498943
18.250389 31.546236 45.120068
55.831688 31.547073 45.583096
56.06134 31.601904 45.24588
71.1866 31.585026 45.618896
18.471796 32.565681 45.212387
55.914013 32.300228 45.752663
56.04314 32.139336 45.499363
70.88942 32.608463 45.390114
71.050568 32.142525 45.736389
18.630417 33.458145 45.281967
55.92791 33.644482 45.452377
70.704262 33.588345 45.504948
18.638077 34.466263 45.377151
55.867409 34.756821 45.270557
70.439476 34.444496 45.561428
55.860153 35.419708 45.524036
68.870667 35.959915 45.170914
69.49781 35.532635 45.499115
70.113037 35.160439 45.838455
18.712172 36.876465 45.299278
55.958046 36.343712 45.558502
56.086807 36.876015 45.261776
68.491272 36.563965 45.430855
69.194107 36.12986 45.953064
5.2367668 37.085754 45.373898
18.750338 37.385952 45.637241
56.246113 37.476753 45.504986
67.756577 37.541782 45.451488
68.060013 37.140205 45.587658
5.6121292 38.95409 45.3759
18.791849 38.539566 45.577358
56.648151 38.610584 45.524742
66.940361 38.783024 45.784607
67.297897 38.231667 45.475025
5.7253036 39.389019 45.582245
18.793282 39.554016 45.582771
56.864185 39.401985 45.702251
57.20137 39.849258 45.402515
65.893051 39.965992 45.404881
66.500389 39.305996 45.557526
5.8847733 40.032528 45.795578
6.0946083 40.857067 45.793274
18.74115 40.529682 45.400581
57.603962 40.621727 45.276825
64.838882 40.855347 45.505451
65.537819 40.287529 45.48698
6.3486204 41.713718 45.183346
18.679678 41.40152 45.405582
57.592232 41.354881 45.474583
58.180309 41.627502 45.09734
62.878899 41.870239 45.129532
63.420959 41.715492 45.417217
64.423393 41.135525 45.465424
6.7095118 42.41777 45.548531
7.1746907 42.835255 45.421143
18.669666 42.779949 45.392273
57.600201 42.551048 45.556732
58.294674 42.602539 45.13884
60.77845 42.74995 45.015808
61.59053 42.625637 45.321774
62.553001 42.261799 45.577164
63.041206 42.101925 45.822006
7.66643 43.382256 45.593758
8.2265806 43.634228 45.227364
18.767809 43.380711 45.513283
56.961479 43.773533 45.880291
57.470188 43.526585 45.599167
58.412075 43.400059 45.136284
59.526211 43.790699 45.038464
60.455585 43.544987 45.295998
61.268826 43.349197 45.732265
8.6206999 44.16634 45.52618
9.3285618 44.724827 45.489285
18.889954 44.576427 45.367783
19.049913 44.840015 45.552822
56.712723 44.660458 45.865902
57.567219 44.46629 45.459656
58.549503 44.62439 45.140095
59.489243 44.485165 45.171005
60.337852 44.420063 45.616222
9.8562746 45.148758 45.510269
10.356151 45.483849 45.435043
18.970934 45.187481 45.229088
19.22439 45.415886 45.567741
56.523571 45.42897 45.767086
57.653534 45.429688 45.2859
58.522758 45.49004 45.142349
59.55061 45.459949 45.369686
60.171131 45.378601 45.759926
11.560834 46.446522 45.470425
12.253983 46.804295 45.109249
19.581591 46.458111 45.446411
55.485619 46.624279 45.871452
56.610481 46.561726 45.359001
57.525761 46.33017 45.155613
58.579041 46.38002 45.104855
59.510609 46.556667 45.415089
60.187798 46.119053 45.924736
12.581574 47.47823 45.446587
13.025366 47.890831 45.202778
19.773907 47.093163 45.18029
20.37862 47.648735 45.600876
54.715149 47.555019 45.816589
55.485645 47.437607 45.467453
56.538803 47.425652 45.067249
57.464386 47.009209 45.0177
58.773869 47.260571 45.020191
59.526924 47.552036 45.334881
60.149857 47.450348 45.922535
12.856476 48.366848 45.738129
13.198499 48.58572 45.290924
20.854654 48.287109 45.615059
21.135487 48.681454 45.580147
53.71117 48.622864 45.753326
54.358154 48.418568 45.436924
55.24099 48.046772 45.229855
59.580914 48.443806 45.230183
60.207451 48.548973 45.819359
13.321309 49.515533 45.378372
21.575171 49.354431 45.439693
52.873653 49.804871 45.571278
53.466312 49.368824 45.229107
54.019341 49.003845 45.124405
59.748348 49.480679 45.203968
60.282391 49.468124 45.715832
13.424782 50.441273 45.423229
22.381681 50.570999 45.422348
52.430946 50.569237 45.511589
59.837543 50.456833 45.117157
60.390976 50.644176 45.599682
13.56059 51.567333 45.410942
22.775322 51.343212 45.402199
51.800781 51.818962 45.900024
52.130142 51.397259 45.359203
59.92329 51.379906 45.064114
60.399117 51.530941 45.548122
13.656156 52.591148 45.550636
23.310419 52.611877 45.406208
51.786472 52.443184 45.454468
60.261353 52.491859 45.5522
13.794297 53.384701 45.49646
23.662624 53.397881 45.433342
51.477558 53.620686 45.547283
59.958992 53.770992 45.256523
60.124893 53.31089 45.67614
13.929922 54.057415 45.8167
14.101548 54.690918 45.409
23.928417 54.09127 45.074814
24.26325 54.524853 45.698078
50.961166 54.673706 45.962254
51.312134 54.517326 45.410816
59.776413 54.5466 45.504162
14.396779 55.575966 45.581253
24.806849 55.4757 45.608971
25.097042 55.935963 45.625992
50.750225 55.628868 45.683796
51.327 55.166737 45.060665
58.957802 55.905899 45.082573
59.354092 55.466175 45.531956
14.827179 56.406982 45.612118
15.074614 56.77393 45.237156
25.348715 56.460411 45.384953
50.48999 56.501305 45.534237
58.697853 56.458023 45.443672
59.086323 56.089508 45.857525
15.503793 57.549511 45.52076
25.859961 57.351944 45.481216
26.036854 57.552692 45.711914
49.832348 57.746216 45.797115
50.255642 57.506897 45.31493
57.803467 57.700687 45.153118
58.308743 57.448746 45.591331
15.862749 58.234032 45.633438
16.168594 58.790443 45.456371
26.48448 58.495613 45.541656
49.679016 58.682495 45.518932
50.08831 58.512878 45.100101
57.731976 58.578045 45.548248
58.113297 58.230133 45.884987
16.512367 59.575184 45.525379
26.864128 59.29277 45.438179
27.252954 59.754265 45.650589
48.921436 59.736355 45.858547
49.45385 59.454967 45.45068
57.74551 59.523746 45.616199
16.848166 60.369965 45.50359
17.099087 60.960907 45.376469
27.722929 60.553757 45.490898
28.078617 60.842087 45.641983
48.673275 60.543041 45.680614
49.310131 60.378296 45.253925
57.554482 60.503666 45.494808
17.347399 61.456882 45.328033
27.854015 61.159515 45.060635
28.42078 61.443024 45.404686
29.211889 61.83456 45.808907
47.787445 61.644039 45.819717
48.571205 61.518463 45.381485
49.129002 61.492176 45.062134
56.820641 61.852867 45.401726
57.204922 61.29821 45.508942
17.799372 62.242607 45.329506
18.184792 62.731346 45.298183
28.825649 62.11021 45.189327
29.590382 62.580635 45.46188
30.322567 62.818855 45.820461
46.80043 62.972687 45.894367
47.495186 62.496414 45.686409
48.330414 62.240227 45.249382
55.826527 62.800175 45.372524
56.361744 62.361343 45.576931
18.660812 63.355347 45.451313
19.189947 63.776649 45.269379
29.755966 63.203587 45.085861
30.492029 63.539612 45.333332
31.335403 63.684189 45.705914
46.43626 63.644051 45.850941
47.432404 63.564175 45.335564
48.012718 63.100288 45.027954
54.733616 63.680607 45.450268
55.175629 63.324284 45.652958
19.632334 64.373306 45.40797
20.092356 64.789169 45.071877
30.62356 64.140831 45.086147
31.563936 64.495628 45.33503
32.401394 64.447655 45.746696
33.056431 64.711472 45.886333
45.646088 64.800484 45.88747
46.533833 64.564697 45.61483
47.236965 64.371567 45.24802
53.948479 64.865646 45.237831
54.217602 64.497017 45.566589
20.439541 65.45256 45.497471
31.705925 65.285904 45.072678
32.489735 65.511871 45.280136
33.517498 65.565887 45.606487
34.454334 65.808891 45.683094
35.556339 65.846359 45.871979
36.194252 65.958481 45.956234
42.793705 65.908051 45.950993
