ply
format ascii 1.0
comment PCL generated
element vertex 587
property float x
property float y
property float z
element camera 1
property float view_px
property float view_py
property float view_pz
property float x_axisx
property float x_axisy
property float x_axisz
property float y_axisx
property float y_axisy
property float y_axisz
property float z_axisx
property float z_axisy
property float z_axisz
property float focal
property float scalex
property float scaley
property float centerx
property float centery
property int viewportx
property int viewporty
property float k1
property float k2
end_header
8.0897684 23.942501 32.71661
10.897475 23.642296 32.169861
13.821229 23.303005 32.574295
15.208393 23.513958 32.953735
7.7933135 25.015577 32.750698
10.512917 25.683659 31.569809
13.628059 25.566545 31.799816
15.595192 25.334854 32.869667
8.5723753 27.957684 32.733776
10.80264 28.653509 31.28529
12.772294 28.387264 31.698439
11.187014 30.659817 32.239513
13.007298 31.247459 32.517406
65.708267 19.791805 35.689022
66.820801 20.114361 35.575634
7.5093188 23.781462 35.102665
14.686462 22.257736 33.142975
16.733467 22.82534 34.188923
65.021957 22.776522 35.547611
67.712234 22.267879 35.305386
69.252464 23.666147 35.143345
5.7203617 26.552776 34.160114
6.7638345 25.726526 33.532379
14.738392 26.828352 33.135403
17.098742 25.480341 33.553913
18.204281 26.008793 34.936874
62.844761 26.67771 35.788219
64.426956 25.528667 35.295994
67.330856 24.860126 35.550449
69.360588 24.87718 35.617531
4.8943362 28.538954 34.901562
7.2981648 28.700171 34.048923
9.0721302 29.665966 33.161476
14.332727 28.501999 33.746346
16.588802 28.479815 34.542244
18.141582 28.31286 35.640224
62.824329 27.472948 35.63517
64.044067 28.285097 35.238483
66.30262 27.58182 35.80518
5.5059786 30.070454 35.893856
8.0995359 31.120205 35.025539
10.067829 31.822474 34.092251
14.274502 31.840155 33.74229
16.41198 31.098999 35.201874
18.060476 30.267498 35.796513
8.8187103 33.057003 35.944893
10.912152 33.627556 35.369801
13.697947 34.140343 35.074314
16.210644 35.178429 35.595932
11.689599 37.376278 35.64407
13.826616 37.482796 34.650394
15.489339 37.039154 35.460812
11.850965 39.226219 35.841637
13.35282 40.049675 35.569557
17.839148 20.715519 37.28146
18.117235 20.761671 38.445953
58.944992 20.597061 38.770344
61.867954 19.165071 38.168091
64.366539 19.695213 37.033218
66.958664 19.37981 37.291939
7.6218743 23.3736 37.617268
17.857895 21.751499 36.779945
18.14253 22.24942 38.039268
56.99567 23.874302 38.876408
58.573025 22.623619 37.929325
61.497986 22.344492 37.593582
63.738914 22.191771 36.532925
67.64624 22.5378 36.817146
69.371498 23.374332 37.357956
5.4526663 26.364233 38.013416
6.4837208 24.794556 37.371918
18.49375 25.717884 37.750454
56.953438 24.689642 38.901329
58.224537 25.52788 37.811169
61.695824 25.652168 37.113922
63.329742 25.046862 36.397591
68.063126 25.410328 36.765167
70.15715 25.999012 36.715145
4.1615229 29.090488 37.444862
18.509726 28.278023 37.467216
58.968933 28.104258 37.724796
61.626022 28.540831 36.972122
64.446274 29.653286 36.385239
67.77449 28.445196 37.329395
70.682602 28.307278 37.432316
4.7998862 31.361124 37.516811
6.9997568 32.034023 36.688396
17.257528 32.323055 36.824612
18.301891 31.342024 38.061848
56.615322 32.47538 38.845058
58.562969 31.843344 38.539154
61.517662 31.175112 37.631691
64.256592 31.262976 37.999779
67.117264 30.68951 38.426136
69.208183 30.003998 38.99762
5.8701153 33.136902 38.887207
7.769043 34.341938 37.717731
10.801288 34.745922 36.520363
12.616344 34.281441 36.228291
16.905363 33.818466 36.889309
18.397436 34.908913 37.711079
56.608528 33.152237 38.910435
59.445572 33.712929 38.664059
61.227837 34.80278 37.396023
63.829044 34.408707 38.144241
8.3938875 36.919235 38.433941
10.134618 37.426373 37.192917
16.623928 37.835289 36.880035
18.731438 37.434097 37.436459
59.930519 37.804043 38.887695
61.152748 37.367458 38.361496
63.378792 36.804356 38.703957
10.77769 40.345192 37.700813
13.658922 41.038605 36.298
16.538004 40.636326 37.897873
18.655708 40.70673 38.311848
61.078865 39.236961 38.79763
11.431706 42.480881 38.156178
13.888533 43.30434 37.535076
15.859274 42.757393 38.551487
18.379677 42.257896 38.712498
17.506454 52.807182 38.536236
19.32984 52.861408 38.60434
21.767027 53.273609 38.931271
17.683601 54.998299 38.564034
19.505369 55.469677 38.258713
20.382362 59.270054 38.834351
21.423998 59.679108 38.819904
20.473204 61.467953 38.371891
21.697664 61.626148 38.371822
22.856297 64.166275 38.93195
24.462822 65.723465 38.908264
23.897022 66.95443 38.904446
25.325489 67.663971 38.573059
56.486656 17.628777 41.48613
58.413643 17.520475 40.653526
60.918751 17.789196 40.49958
63.171223 17.924213 41.820583
17.622488 20.391415 40.366138
18.297087 20.838776 39.821838
56.413567 18.944117 41.399483
58.125607 19.181044 39.826347
60.990891 18.24305 39.318638
64.595772 18.34622 40.466663
66.951317 19.128283 40.520298
7.421299 23.214622 40.75029
18.5518 22.56506 40.786022
56.619442 22.850492 40.69305
57.227875 21.898117 39.613113
68.680046 21.971537 39.455746
69.389664 23.160017 40.270317
5.5486965 25.954205 40.204681
6.4795737 24.433262 40.372765
18.575788 25.440983 40.499191
56.521347 25.156193 40.579689
57.110634 26.669411 39.271294
70.770454 25.900578 40.653172
4.2840309 28.545839 40.559193
18.589867 28.605679 40.716236
56.837605 28.302542 41.308292
58.013302 28.968 39.618294
71.324066 29.302874 39.967453
4.3709335 32.112194 40.137878
18.570444 30.966522 40.532269
56.352966 31.744577 40.505157
57.724255 30.359522 39.913971
65.609558 32.838326 39.111702
67.808655 32.08675 39.960606
70.657784 30.916361 40.655991
4.988555 34.359173 40.492878
6.4611335 35.085785 39.88792
18.663864 34.512577 40.05434
56.339615 34.274342 40.367104
58.484341 34.719986 39.812775
60.007027 35.844318 39.065231
65.487999 35.023567 39.889675
66.940437 34.601604 40.759357
5.3403568 36.495895 41.759647
7.1522193 37.559731 40.567944
19.187946 37.518753 40.380344
56.273827 37.691917 40.734581
58.545929 37.606617 40.117641
61.453938 38.128834 39.066227
64.721107 37.721436 40.482826
66.501923 36.597973 41.517746
8.3705425 40.220074 40.788105
9.4536333 40.828533 39.870014
19.199417 40.675152 40.254417
56.817348 39.109798 41.674683
58.865757 39.697468 41.084583
61.09745 40.116905 40.190247
63.829819 39.437813 41.090729
8.8604994 42.111591 41.789516
10.650434 43.017216 40.686199
13.460046 44.100906 40.778149
16.429047 43.334042 40.257607
18.46244 42.48494 39.853462
17.647858 50.820004 41.24057
19.5623 50.532871 40.300179
21.293995 50.737736 41.072823
53.719341 50.699974 41.460751
55.407829 50.520088 41.302353
57.246876 50.755798 41.61491
16.410791 52.144157 40.781837
20.207346 51.763962 39.175827
22.073601 52.682247 39.931152
53.007656 52.657387 41.170807
55.411308 52.576347 40.876862
57.874084 52.335613 40.819866
16.578348 55.653603 40.632179
20.538776 55.823162 39.178413
22.02931 55.46508 40.365078
53.377014 55.16354 41.693279
55.448689 55.371929 40.621296
57.623707 54.924591 40.840961
17.680468 57.16436 41.306747
19.419352 58.082657 40.286171
22.666723 58.404259 39.949535
24.442757 59.17704 40.463127
52.572124 58.844353 41.676682
55.038204 58.373966 40.894768
19.410063 61.727516 40.437618
23.233305 61.433643 39.57695
24.584324 61.38427 40.606735
53.155048 61.165844 41.379044
55.013222 61.45919 40.677658
20.347342 63.312588 41.300789
22.823019 64.371262 40.132717
24.90546 64.25312 40.438606
27.322857 65.992622 41.872509
50.656925 65.59893 41.740189
52.567104 64.706627 41.404209
54.237671 63.194023 41.784058
23.312395 67.101433 40.400364
26.035381 68.222244 39.654697
27.815962 68.207443 41.205521
49.998943 68.008163 40.985466
51.744862 67.298332 40.822277
26.240295 69.354401 40.863365
28.280037 70.619263 40.44899
31.812267 71.019592 40.457603
33.768215 71.407387 41.645092
37.440914 71.567627 41.424095
41.649227 71.770256 41.833195
43.645786 71.043663 41.519154
46.258675 71.037659 41.337971
48.727295 70.200394 41.869568
32.479855 72.53936 41.164192
34.364773 73.044014 40.945213
37.597481 72.81501 41.260643
40.44986 72.682816 41.619415
42.758877 72.294022 41.520325
56.30064 17.515244 43.109192
58.11121 16.958078 43.538849
61.811443 17.432657 43.625057
63.879242 17.79373 43.674946
17.283092 20.441584 42.885025
18.160318 20.874115 42.538475
55.643555 19.408243 43.166878
65.120308 18.151175 42.891514
67.188751 19.115637 43.864819
7.1054296 23.320011 42.878212
17.698275 21.061186 43.677849
18.618587 22.586277 42.786091
55.689671 22.51403 43.384018
68.628174 21.50798 43.473152
69.465126 23.040648 43.375114
5.3765159 25.948345 43.043091
6.243876 24.413668 43.28326
17.953993 25.610281 43.406342
18.307558 25.204512 43.40321
55.550171 25.764532 43.505604
70.825806 25.835291 43.388824
4.2606702 28.435425 43.151169
17.801298 28.502218 44.210094
18.152657 28.740448 43.065964
56.392117 28.260237 43.907703
71.437271 28.702494 43.236004
4.307744 31.714014 43.039898
17.976738 30.112782 44.69788
18.306213 31.248001 43.857384
56.291084 31.248735 43.499702
70.945038 31.591661 43.182091
4.6853127 34.656742 42.971931
18.721973 34.238232 43.651745
55.938927 34.504322 43.606339
68.511597 35.001579 43.282581
69.86132 33.820831 43.948448
5.3742437 37.63689 42.816425
6.4335656 38.679539 42.282017
18.979733 37.468872 43.327099
56.223686 37.637512 43.439106
57.095085 38.855457 44.276264
65.462509 38.657272 42.240509
67.266319 37.491386 43.417553
5.8020267 39.656059 43.73772
6.79915 40.592121 43.399651
18.717138 40.600159 43.303436
56.987034 39.040962 42.816578
58.655575 40.187092 43.756008
61.55793 40.831387 43.407974
64.44265 40.10667 43.35865
66.277779 39.326973 44.078457
8.2346668 42.709686 43.841534
10.39289 44.230312 43.312935
13.22876 44.778893 42.424797
16.904802 43.67654 42.692673
18.25131 42.899273 44.018894
59.372143 42.75423 44.854549
60.778488 42.382442 44.763439
11.479413 45.413406 43.996822
13.353765 46.127121 43.616699
16.313625 46.560272 42.865364
18.741673 46.687042 44.109055
56.572224 47.868614 44.882496
57.899406 47.577423 44.908615
14.155795 49.35622 44.195267
16.646872 49.693954 42.608486
19.358448 49.454136 42.833889
21.650278 50.316368 43.572006
53.341709 50.191395 43.758728
55.676105 49.411369 43.847279
58.305836 49.995155 44.234623
14.325885 52.645115 43.730228
15.505053 52.398003 42.416328
22.835264 52.723137 43.104527
52.228706 52.562359 43.701576
59.425873 52.06353 43.669312
60.009384 52.541183 44.912102
14.625186 54.938168 43.890675
15.657325 55.979469 43.211819
23.165537 55.573097 42.559624
24.382929 56.280415 43.516342
50.954365 56.507179 44.829292
52.24308 55.547623 43.42889
56.76704 56.907822 42.475155
58.446884 55.851898 43.718479
17.003363 58.232761 43.397034
18.513592 58.502552 42.564098
23.908911 57.126038 42.10289
25.321461 58.574051 43.189571
50.53162 58.761181 44.224709
51.812778 58.035011 42.545963
56.754078 57.856544 42.907875
57.30069 57.953629 44.302959
17.506174 60.845806 44.156445
18.511702 62.205063 43.762356
25.815603 61.451893 42.852787
27.753853 62.101231 44.365948
50.156067 61.526173 44.187027
51.854733 61.524994 42.560444
56.236706 61.857925 43.318207
57.157707 60.710518 44.180176
20.092995 63.961937 44.001408
21.569092 65.099998 43.05592
26.502426 63.562435 42.603352
28.425911 64.742401 43.777794
30.746616 65.296448 44.742676
47.553783 65.245705 44.615715
49.415432 64.204369 43.46011
53.38242 64.217644 43.230408
54.434116 63.499962 43.848415
22.566017 67.34771 43.597866
24.100029 68.944839 42.426983
28.643335 67.150536 42.992413
31.758242 67.754181 43.556835
34.242416 67.964149 44.376575
36.865948 68.328865 44.629143
40.928612 68.667999 44.773888
43.611614 68.045547 44.308319
46.862072 67.640335 44.218975
48.661007 67.708633 42.860882
52.272682 67.641083 43.557178
23.973526 69.021271 44.299408
25.926645 69.472694 43.607334
28.076612 70.749161 43.393505
31.777185 71.213158 43.734425
34.079346 70.187485 42.730579
37.903549 70.280571 43.365547
40.493122 70.735428 43.282307
43.542587 70.751099 43.045189
46.661118 69.827805 42.801266
49.337093 69.7957 43.273045
32.309715 72.324196 42.784996
33.991291 73.050652 43.516239
37.488251 72.934479 43.797119
39.640926 72.173187 42.137657
43.430664 72.133629 42.804188
67.191246 18.995375 45.184063
55.007496 23.23476 45.253635
68.794083 21.634287 45.416183
69.546585 23.02158 45.507084
55.04303 26.305735 45.303291
70.722763 25.48267 45.794487
55.612904 28.74568 45.619164
71.373062 28.71776 45.983593
18.354694 32.029285 45.160519
55.77232 31.479225 45.851639
71.200165 31.639614 46.062691
18.623566 34.597466 45.376518
55.732388 34.625607 46.462646
68.870667 35.959915 45.170914
70.259468 34.721226 45.927666
5.424448 38.01992 45.374901
18.732258 37.433987 45.623737
56.129986 37.552269 46.272396
67.84034 37.841587 46.514843
69.543839 36.499722 47.062176
5.7452378 39.46946 45.60891
6.3262315 41.637806 45.303375
18.766521 40.652668 45.781944
56.379028 40.36879 46.68787
57.619221 40.856194 45.327564
62.878899 41.870239 45.129532
64.757317 41.068001 46.268951
66.535294 39.494808 46.667194
7.2700171 43.055756 45.743614
9.3285627 44.724827 45.489285
18.973774 43.515221 45.969189
55.730179 43.662807 46.899281
58.586765 43.865902 45.235027
61.777004 43.496716 46.273293
63.345184 42.541359 46.964275
10.917753 46.322208 46.100792
12.509549 47.444561 45.511902
20.025555 46.541222 46.189472
21.173 47.790894 47.255539
53.523186 47.169064 47.167969
55.37508 46.278889 46.153839
58.903332 46.412792 45.271004
60.999462 46.397419 46.916477
12.948485 49.310749 46.206425
20.877697 48.251617 45.728741
22.041061 49.668148 46.732784
52.775295 49.467957 46.267632
54.426159 48.445255 45.371979
59.688393 49.243214 45.190346
60.858452 49.692993 46.548962
13.692487 52.630817 46.689541
23.258348 52.360928 46.613125
24.013662 53.809772 47.539894
50.778553 53.607967 47.45755
51.527935 52.341328 46.333305
59.935192 52.176937 45.12825
60.611893 52.537708 46.16367
14.40587 55.271503 46.263855
15.183084 56.600208 47.034584
23.928417 54.09127 45.074814
25.052521 55.666191 46.483185
50.245426 55.438229 46.874763
51.272686 54.581387 45.458065
59.34938 55.777084 46.054623
60.357712 54.680649 47.044991
16.105373 58.616825 46.358662
26.48019 58.140141 46.227558
27.600935 59.351974 47.126575
47.777519 59.433666 47.24987
49.276489 58.62048 46.0602
58.121872 58.547596 46.095394
17.399342 61.389858 46.265724
18.210382 62.677395 46.161438
28.974056 61.031162 46.711014
31.087444 62.295582 47.249027
33.4007 62.811996 47.788918
38.922855 62.897842 47.857395
39.978413 62.719097 47.494926
44.485291 62.38409 47.668751
46.817924 61.739635 46.480694
48.752357 61.160313 45.383327
56.442631 62.350258 46.536804
57.451637 61.016884 46.54002
19.44989 64.270439 46.138557
29.755966 63.203587 45.085861
31.822302 64.156769 45.734066
34.59103 64.511711 46.598083
37.895359 64.414307 47.05999
40.340584 64.245407 46.952324
43.393604 64.862869 46.482449
46.318043 64.655838 45.622562
48.012718 63.100288 45.027954
53.772087 65.389771 46.29414
54.876915 63.97646 46.34285
20.845533 66.357399 46.644703
22.208027 67.750542 46.416138
24.0548 68.95047 46.032619
32.903748 66.387566 45.08316
34.452629 66.503815 45.267124
37.869049 67.249535 45.58152
40.434181 67.199661 45.6717
43.165993 66.608521 45.512955
45.937004 66.282089 45.152691
49.977325 68.702934 46.927006
52.317978 67.451447 46.547119
23.64242 69.166237 47.198746
25.385908 69.711052 46.450504
28.313221 70.718185 46.658325
31.788034 71.442558 46.296913
33.787251 71.754387 47.270927
37.54501 71.724602 47.035721
41.801041 71.815384 47.325428
43.523903 71.319939 46.511097
46.842545 70.485916 47.010605
49.020241 69.570534 46.257633
34.119167 72.338608 45.915302
37.740715 72.313499 45.802395
39.63356 72.374664 47.342892
42.45261 72.010017 45.898006
67.748589 38.694275 48.047241
65.335648 41.338898 48.254364
66.565178 40.034061 48.150494
54.358707 44.218658 48.105999
62.659351 44.474251 48.264866
63.760925 43.077492 48.313576
53.238235 46.306244 48.281647
61.897198 46.549904 48.401024
51.895275 49.308685 48.48909
61.572498 49.528374 48.741703
14.060463 53.587849 48.024212
23.402468 52.532646 48.133221
24.118988 53.762054 48.287945
50.631184 53.209972 48.612835
51.186897 51.523506 48.629852
61.169846 52.722134 48.928905
14.644744 54.885826 48.125626
15.37413 56.20335 48.317696
25.382261 55.574055 48.353882
49.660419 55.07959 48.746803
59.708576 56.225639 49.317352
60.499638 54.91391 48.763393
16.781076 58.671326 48.537342
26.591221 57.35701 48.246635
28.60742 59.165627 48.84024
32.214722 59.70507 49.546326
33.8382 59.780563 49.349701
44.922447 59.862602 50.047573
46.220192 59.221626 49.41621
48.353203 57.367531 48.63073
58.578876 58.639675 49.225895
17.616312 60.77729 48.268318
18.503754 62.026817 48.767437
29.465879 60.424858 48.442303
31.639885 61.068962 49.002472
34.269882 61.191139 48.934963
37.416477 61.765903 49.204922
40.869675 62.072544 49.140038
43.159836 61.555454 49.496624
45.730366 60.360756 48.682484
56.365971 62.211601 49.608139
57.465706 60.948578 49.128986
20.141882 64.305634 48.978462
21.177759 65.531586 49.597729
35.524574 63.146526 48.036469
37.523396 63.187962 48.241058
41.763325 63.177429 48.167618
42.359921 63.139988 48.269455
53.696224 65.697418 49.786682
54.99786 64.09227 49.291904
20.802919 66.041298 48.078259
22.502968 67.637749 49.164284
24.699989 68.706802 50.097897
50.313709 68.510803 49.368038
52.260345 67.178772 49.38171
23.74799 69.173523 48.486721
25.556702 69.624771 49.089272
28.662544 70.418236 49.50766
31.673424 71.062965 49.587566
34.299267 71.539246 49.527924
37.556778 71.755165 48.852547
40.842659 71.594742 49.623627
43.618935 70.68869 49.512833
46.641354 69.986984 49.490276
48.748238 69.35273 49.340771
35.607914 72.384193 50.616226
37.310425 72.391579 49.969269
39.43885 72.093025 48.977592
53.256882 65.695663 51.192772
54.019588 64.702843 51.042755
49.523537 68.576683 51.30481
52.032909 66.977669 51.173431
32.135143 70.75058 51.114613
33.962078 71.608368 51.211235
41.568695 71.262138 51.260822
43.46418 70.400566 51.276138
46.201721 69.634109 51.283115
48.280819 69.097878 51.296368
34.9543 72.520477 51.247219
36.450535 72.794029 51.340687
0 0 0 1 0 0 0 1 0 0 0 1 0 0 0 0 0 587 1 0 0
