ply
format ascii 1.0
comment PCL generated
element vertex 1629
property float x
property float y
property float z
element camera 0
property float view_px
property float view_py
property float view_pz
property float x_axisx
property float x_axisy
property float x_axisz
property float y_axisx
property float y_axisy
property float y_axisz
property float z_axisx
property float z_axisy
property float z_axisz
property float focal
property float scalex
property float scaley
property float centerx
property float centery
property int viewportx
property int viewporty
property float k1
property float k2
end_header
62.468079 23.413635 33.327621
65.838364 23.307695 33.092648
66.524918 23.475 33.562847
11.386962 24.756523 33.430786
12.500005 24.428568 33.443203
13.500004 24.119999 33.520348
14.400008 24 33.3465
15.410532 24.047367 33.363506
16.514292 24.171427 33.443203
17.424002 24.539995 33.43235
18.000002 24.899998 33.557491
61.799896 24 33.900352
62.663521 24.399998 33.573078
63.424896 24.675001 33.100346
65.999916 24.000002 33.000343
66.724915 24.4 33.312847
67.199921 24.633331 33.80035
9.8307714 25.684612 33.577274
10.484213 25.31053 33.410877
18.38077 25.488461 33.404198
62.999893 25.200003 33.900352
63.599892 25.460871 33.522091
64.299889 25.700001 33.100342
66.749916 25.499998 33.150345
67.361473 25.476925 33.76189
9.4846182 26.215384 33.254192
18.828569 26.47143 33.457493
63.621319 26.44286 33.836067
64.515686 26.46316 33.300346
65.459908 26.700001 33.00034
66.631493 26.478949 33.189816
67.324928 26.350004 33.775352
15.750008 27.900002 33.000343
17.528576 27.899998 33.043201
18.52286 27.548574 33.411774
19.200001 27 33.900352
62.678467 27.482141 33.632488
63.613529 27.518181 33.341259
64.439896 27.359999 33.120342
65.652534 27.47368 33.079292
66.62719 27.450001 33.532166
67.199921 27.342861 33.900356
14.700003 28.800001 33.000343
15.41053 28.531578 33.205612
16.500002 28.411768 33.212112
17.382357 28.482355 33.512115
18.230772 28.384615 33.831123
62.624893 28.5 33.337841
63.299889 28.200003 33.000343
65.699898 28.5 33.07534
66.569908 28.5 33.570351
14.600002 29.4 33.00034
15.345004 29.475002 33.315346
16.500004 29.400002 33.600346
17.421431 29.4 33.771778
18 29.4 33.900352
62.787384 29.362503 33.500347
63.337391 29.8125 33.150345
64.799896 29.9 33.00034
65.607597 29.573082 33.127274
66.652855 29.417648 33.741528
14.700003 30 33.000343
15.507699 30.51923 33.323425
16.515793 30.457891 33.774033
17.44091 30.409094 33.73671
18.356251 30.506248 33.900356
62.999889 30 33.900352
63.579201 30.455172 33.548622
64.475899 30.527998 33.360348
65.544342 30.511106 33.633678
66.399918 30.100002 33.800354
10.349998 31.65 33.00034
15.559096 31.486364 33.463985
17.700001 31.200003 33.900352
18.179998 31.200001 33.900352
64.19989 31.200001 33.900352
10.641175 32.382359 33.441525
11.25 32.610001 33.09034
15.247062 32.417652 33.423878
10.799999 33.000004 33.720348
11.515386 33.265381 33.484966
12.455171 33.641373 33.445179
13.514999 33.795002 33.360348
14.450002 33.687508 33.400341
15.078949 33.268417 33.552979
13.8 36.900002 33.900349
14.370003 36.690002 33.900352
15.187502 36.712502 33.900356
12.899999 37.799995 33.900352
13.474999 37.474995 33.900352
14.400001 37.5 33.900352
15.166668 37.466667 33.900356
12.899999 38.099995 33.900349
13.425 38.450001 33.900352
14.475001 38.450001 33.900356
15.000003 38.099998 33.900352
13.620001 39 33.900352
14.280002 39 33.900352
62.583225 21.849998 34.533691
63.576817 21.669231 34.500359
64.521324 21.685717 34.543217
65.539902 21.899996 34.540356
60.649902 22.725 34.675358
61.499897 22.47143 34.4575
62.099895 22.199997 34.275356
65.939911 22.200001 34.260357
66.57135 22.514286 34.500359
67.199921 22.800001 34.800362
10.800003 23.700003 34.500359
11.475004 23.549997 34.800358
14.587508 23.8125 34.575356
15.423535 23.700001 34.412121
16.390913 23.727272 34.52763
59.75444 23.454548 34.486725
60.579906 23.400002 34.240353
61.299896 23.5 34.200356
66.899925 23.099998 34.200356
67.37719 23.563637 34.513996
9.6166706 24.583334 34.40036
10.514287 24.457142 34.686073
11.325005 24.562502 34.537861
12.480005 24.419996 34.500359
13.54616 24.115385 34.47728
14.250006 24 34.425358
16.740004 24.000002 34.320354
17.417648 24.352942 34.535652
18.000002 24.9 34.500359
59.514603 24.467642 34.509186
60.57848 24.621428 34.221779
61.449894 24.525 34.200352
62.19989 24.800003 34.200356
67.626244 24.53684 34.468781
9.6000023 25.500002 34.481609
10.400002 25.233332 34.400356
18.458826 25.447058 34.518005
59.733234 25.299997 34.800358
60.583233 25.516665 34.65036
61.51989 25.439999 34.460354
62.483234 25.533335 34.317028
67.72493 25.5 34.500359
18.9 26.236366 34.554905
19.199999 26.800001 34.500355
59.819904 26.999996 34.800362
60.569904 26.789999 34.800358
61.499886 26.568748 34.74411
62.514179 26.428574 34.371792
63.299896 26.250002 34.200356
67.699928 26.449999 34.450359
68.099937 26.099998 34.800362
18.900002 27.825003 34.425358
19.199999 27.385714 34.521786
58.799908 27.900002 34.800362
59.485607 27.614285 34.614647
60.621334 27.642857 34.586071
61.574894 27.599997 34.65036
62.129894 27.360004 34.200352
67.663567 27.490911 34.432178
18.776468 28.517649 34.429771
58.7999 28.542856 34.800358
59.555069 28.510344 34.314159
60.629902 28.530003 34.500362
61.453739 28.5 34.500362
62.099895 28.5 34.200352
67.515717 28.484215 34.468781
18.699999 29.366673 34.38369
19.199997 29.819998 34.800358
59.587399 29.231251 34.706608
60.543655 29.400002 34.706608
61.579884 29.460001 34.74036
62.287399 29.53125 34.387856
66.899918 29.700003 34.200356
67.436775 29.368418 34.531937
18.830767 30.346153 34.269585
19.199997 30.659998 34.620361
61.799885 30.299997 34.800362
62.584496 30.542307 34.500359
65.828476 30.899998 34.243214
66.623909 30.540003 34.47636
67.199913 30.128572 34.671783
15.840007 31.620001 34.260357
16.481253 31.481249 34.425358
17.433336 31.599998 34.367023
18.624998 31.550001 34.412861
19.199997 31.379999 34.800362
62.69989 31.380001 34.660358
63.57132 31.52857 34.4575
64.499901 31.515793 34.48457
65.466568 31.283339 34.600357
15.750007 32.400005 34.350357
16.500002 32.372726 34.800358
17.549999 32.100002 34.800358
18.299999 32.099998 34.800362
10.710001 33.299999 34.410355
11.478949 33.757893 34.452991
12.385716 33.900002 34.414646
14.700001 33.900002 34.200356
15.558623 33.527584 34.46933
16.200003 33 34.800362
12.633334 34.200005 34.700359
13.476923 34.200005 34.408047
14.418751 34.312504 34.537857
15.128572 34.200005 34.671787
60.899914 34.457146 34.800358
61.521339 34.478569 34.800358
13.620001 35.700001 34.800362
14.4 35.538464 34.684975
15.450002 35.550003 34.65036
16.5 35.550003 34.650356
17.499998 35.560001 34.740356
60.899891 35.279999 34.800362
61.499882 35.507149 34.800358
62.099884 35.25 34.800358
11.999998 36.899998 34.800362
12.599998 36.557137 34.700359
13.46087 36.378258 34.382969
14.372727 36.109093 34.254898
15.600003 36.329998 34.200356
16.5 36.521053 34.452991
17.471998 36.468002 34.60836
18.21818 36.327274 34.800358
11.7 37.620003 34.800362
12.391303 37.473915 34.396015
13.200001 37.200001 34.200356
15.700003 37.580002 34.380356
16.299999 37.300003 34.700363
11.775 38.400002 34.725357
12.36 38.419998 34.280354
15.477276 38.413639 34.473087
11.871429 39.299999 34.800358
12.48387 39.464516 34.461658
13.464707 39.617645 34.306244
14.400002 39.551998 34.476357
15.125001 39.074997 34.550358
13.500002 40.200001 34.800358
61.69989 21.899998 35.433701
62.587387 21.712503 35.381615
63.599895 21.599998 35.400372
64.499893 21.600002 35.400368
65.499908 21.733334 35.367031
66.299911 21.9 35.520367
12.750006 22.725 35.550369
13.200005 22.65 35.700371
59.999905 22.800001 35.357513
60.599907 22.481249 35.43787
61.274895 22.200003 35.287865
66.715302 22.26923 35.354214
67.324928 22.675001 35.450367
11.700005 23.700003 35.100361
12.435004 23.430004 35.370369
13.333339 23.566666 35.700371
14.520006 23.699999 35.34037
15.450007 23.699999 35.400364
16.472731 23.754545 35.454918
59.414192 23.4 35.400368
67.72493 23.325001 35.325367
68.09993 23.699997 35.700367
10.700004 24.6 35.100365
11.450002 24.275 35.175365
12.360003 24.224998 35.340366
13.530006 24.18 35.34037
14.175005 24 35.475368
16.800005 24 35.250366
17.428576 24.357141 35.428936
18.000004 24.9 35.280365
58.799911 24.6 35.360367
59.099903 24.060001 35.280365
67.799927 24.300001 35.100365
68.099922 24.48 35.420364
18.31765 25.535294 35.418018
58.7999 25.466667 35.533703
59.330669 25.592306 35.146523
68.09993 25.5 35.325367
18.811762 26.488235 35.470959
58.684517 26.400002 35.538826
59.47049 26.452944 35.135658
60.599899 26.25 35.100361
68.258759 26.470589 35.470955
18.9 27.490911 35.373093
58.568081 27.477272 35.414005
59.099903 27.1 35.100361
68.210449 27.521051 35.384579
18.900003 28.414288 35.357513
19.200001 28.799999 35.520367
58.383224 28.51667 35.383705
67.799927 28.650002 35.100365
68.09993 28.474998 35.400364
19.350002 29.433332 35.417034
58.683235 29.383331 35.417038
59.36657 29.633331 35.16703
60.899895 29.700001 35.100365
61.199894 29.699999 35.100365
67.772652 29.481819 35.291279
68.09993 29.279999 35.700371
19.499998 30.476469 35.276833
59.634686 30.19565 35.465588
60.575905 30.552 35.316368
61.430656 30.576923 35.123444
66.833244 30.833334 35.333698
67.43676 30.268417 35.431953
18.899996 31.799997 35.300365
19.3125 31.443754 35.43787
60.899891 31.199999 35.700371
61.556133 31.331251 35.43787
62.457024 31.685709 35.34322
63.524887 31.800003 35.175365
64.649887 31.800001 35.250366
65.571327 31.585714 35.414654
66.449905 31.200001 35.400368
16.700003 32.700001 35.100361
17.442858 32.592861 35.250366
18.424999 32.287495 35.425365
60.449898 32.999996 35.700371
62.999889 32.099998 35.700371
63.633221 32.100002 35.533707
64.328453 32.100002 35.5718
10.799999 33.600002 35.400364
11.400002 33.825001 35.400372
12 33.900002 35.100365
15.900002 33.900002 35.100365
16.464001 33.468002 35.388378
17.228575 33 35.571796
59.662395 33.399998 35.562874
60.599892 33.50526 35.258263
61.499889 33.450001 35.362865
62.459888 33.644997 35.595375
11.999998 34.199997 35.700371
12.516667 34.383335 35.433704
13.472727 34.609093 35.209457
14.325001 34.725002 35.100361
15.557146 34.521427 35.186081
16.480001 34.559998 35.540363
17.366665 34.799995 35.600372
59.643642 34.518749 35.512867
60.399902 34.5 35.100365
61.799889 34.200001 35.100365
62.585602 34.428574 35.200367
63.415264 34.523075 35.584988
11.850001 35.549999 35.700371
12.583333 35.483341 35.450371
13.424999 35.299999 35.175365
14.400002 35.099998 35.100365
15.540001 35.099998 35.100365
16.500002 35.100002 35.100361
17.66 35.16 35.260365
18.586359 35.427273 35.414005
19.199997 35.699997 35.700367
59.764183 35.35714 35.5718
60.436264 35.454548 35.100368
62.657036 35.442863 35.164654
63.438347 35.42308 35.53883
11.565 36.464996 35.400368
12.2 36.099995 35.175365
18.674997 36.450001 35.100368
19.509993 36.470005 35.380367
59.899895 36.100002 35.600372
60.624897 36.424999 35.400364
61.4841 36.521057 35.258263
62.583755 36.493546 35.381012
63.399887 36.26667 35.700375
11.437501 37.425003 35.100365
16.554548 37.636364 35.182186
17.510527 37.515789 35.210888
18.529409 37.535297 35.294487
19.540903 37.513638 35.454918
61.457031 37.200001 35.700375
62.279888 37.200001 35.700367
15.900002 38.528572 35.143219
16.460001 38.340004 35.560368
17.549997 38.099998 35.700375
18.599997 38.099998 35.700371
19.199995 38.099998 35.700371
11.799998 39.566666 35.100365
12.299999 39.900005 35.100365
14.700002 39.900005 35.100365
15.407144 39.428577 35.378944
16.200003 39 35.700367
11.999999 40.5 35.587868
12.617647 40.482353 35.347424
13.445454 40.609093 35.209457
14.400002 40.44706 35.312134
15.000001 40.500004 35.700375
12.650001 41.350002 35.700375
13.525001 41.325001 35.575375
14.375 41.325001 35.575375
15.210001 41.370003 35.700375
13.55 42.25 35.700375
14.464286 42.385715 35.700375
15.149999 42.100002 35.700375
66.799919 19.699999 36.800381
67.364914 19.469997 36.435375
66.77491 20.350002 36.825382
67.416588 20.400002 36.383713
13.800006 21.9 36.300377
14.200004 21.799997 36.800381
61.592197 21.899996 36.484993
62.599895 21.742859 36.443237
63.557041 21.600002 36.514668
64.499893 21.6 36.450378
65.590813 21.654549 36.450375
66.299919 21.899998 36.450378
67.585648 21.214285 36.836098
13.680006 22.500004 36.030373
14.415795 22.436844 36.474068
15.125008 22.550001 36.825382
59.999905 22.800001 36.500378
60.614189 22.414286 36.443241
61.199898 22.199999 36.450378
66.799919 22.199999 36.450375
67.552101 22.565218 36.482986
68.099937 22.619999 36.720379
13.675006 23.500002 36.025372
14.421435 23.44286 36.257519
15.387507 23.575003 36.487881
16.590004 23.85 36.09037
59.577175 23.386364 36.436741
67.799927 23.099998 36.225376
68.13327 23.499998 36.233707
12.900007 24.000002 36.000374
13.200006 24.000002 36.000374
14.100004 24.000002 36.00037
15.900006 24 36.800381
16.521433 24.149998 36.664665
17.325005 24.65 36.387875
58.799911 24.619999 36.420376
59.099911 24.075003 36.525379
68.34539 24.545454 36.191284
17.63077 25.384615 36.761925
18.064287 25.585714 36.214661
58.594635 25.547367 36.426697
68.399925 25.499998 36.360374
18.332142 26.421429 36.503948
58.383232 26.483335 36.500381
68.437424 26.53125 36.450378
18.696001 27.467999 36.420376
57.899906 27.9 36.900383
58.199902 27.378948 36.316162
68.559937 27.579998 36.540382
18.879997 28.440002 36.560379
19.200001 28.799997 36.000374
57.899906 28.199997 36.728951
58.199902 28.560001 36.390377
68.494659 28.468422 36.426697
18.9 29.1 36.900383
19.291307 29.517395 36.417763
58.437397 29.400003 36.412872
68.249931 29.415005 36.42038
19.337502 30.562502 36.525372
58.799904 30 36.720379
59.516029 30.483866 36.426182
60.299896 30.899998 36.00037
66.89991 30.899998 36.000374
67.520615 30.558619 36.383137
68.099937 30 36.720379
18.819996 31.659998 36.60038
19.199997 31.35 36.300373
58.799908 31.799997 36.900383
59.737396 31.574999 36.787884
60.582245 31.429415 36.318024
61.433228 31.700003 36.033707
64.799896 31.800001 36.450378
65.485611 31.657143 36.443233
66.559006 31.336367 36.464016
17.727272 32.645462 36.600376
18.299999 32.29565 36.417763
56.899902 32.599998 36.800381
57.64991 32.416672 36.667049
58.468311 32.321056 36.489849
59.512402 32.425007 36.275372
60.579899 32.419998 36.200375
61.499882 32.475002 36.150372
62.504883 32.385006 36.135368
63.633224 32.366665 36.53371
64.399879 32.100002 36.450378
10.799999 33.466667 36.467041
11.413636 33.749996 36.518562
16.778574 33.664284 36.450375
17.231251 33.112499 36.356628
56.515285 33.449997 36.715775
57.599907 33.449997 36.367046
58.588135 33.423527 36.141552
59.099899 33.450005 36.000374
61.799889 33 36.000374
62.699886 33.184616 36.092678
63.610992 33.466663 36.367046
64.315269 33.623077 36.784996
11.863636 34.554546 36.518559
12.133335 34.566669 36.267044
16.680002 34.260002 36.120373
17.439131 34.421741 36.469948
18.283333 34.749992 36.433712
56.543377 34.513042 36.743866
57.654453 34.445457 36.518559
58.499897 34.5 36.260376
59.099903 34.560001 36.000374
63.862381 34.425003 36.00037
64.499886 34.457146 36.600384
11.505882 35.311764 36.318024
12.075 35.100002 36.000374
18.839996 35.100002 36.300377
19.371426 35.457146 36.457523
56.999905 35.099998 36.900383
57.599907 35.325005 36.769131
58.51656 35.416664 36.650379
59.207054 35.485718 36.150372
63.899891 35.400002 36.00037
64.499878 35.400005 36.600376
19.799992 36.128574 36.386089
20.099993 36.738461 36.438839
59.606148 36.356247 36.516006
60.449902 36.849998 36.200375
63.71656 36.583328 36.100372
64.395546 36.378254 36.639515
19.799995 37.799999 36.00037
20.099993 37.5 36.375378
59.999897 37.799999 36.900383
60.599895 37.443748 36.637882
61.414173 37.564281 36.150372
62.666557 37.533337 36.117039
63.633224 37.483337 36.517048
64.19989 37.379997 36.900383
16.680002 38.700001 36.00037
17.550001 38.550007 36.150375
18.642853 38.549999 36.150372
19.580763 38.411545 36.438835
20.099993 38.099998 36.720379
59.999905 38.400002 36.900383
60.599911 38.400002 36.675377
61.524887 38.325001 36.475376
62.499886 38.366669 36.417046
63.635189 38.400002 36.759205
15.775004 39.649998 36.100372
16.5 39.378258 36.48299
17.549999 39.359993 36.780388
18.599997 39.316666 36.783714
19.199995 39 36.900383
59.999901 39.342857 36.900383
60.599895 39.525002 36.705387
61.499886 39.539997 36.60038
62.596043 39.542313 36.681156
63.424885 39.249996 36.825382
15.637506 40.5 36.131626
16.425001 40.5 36.750381
17.509089 40.472733 36.900387
18.257139 40.542854 36.900383
60.712402 40.387501 36.900383
61.529896 40.41 36.900383
62.279884 40.200005 36.900383
12.374999 41.625 36.000374
15.736368 41.400002 36.136738
16.447063 41.400002 36.582733
17.519999 41.460003 36.900387
18.621424 41.464287 36.900387
12.614285 42.399998 36.14323
13.35 42.75 36.00037
14.400001 42.900005 36.000374
15.590326 42.570965 36.261665
16.4 42.239998 36.800381
17.999998 42.000004 36.900383
18.299995 42 36.900383
12.79091 43.281826 36.627655
13.475001 43.525005 36.437874
14.399999 43.499996 36.200375
15.300001 43.473915 36.60038
13.799999 44.099995 36.900379
14.399998 44.100002 36.682194
15 44.099995 36.900383
18.712498 53.512505 36.900387
19.379995 53.700001 36.900383
18.899998 54.450001 36.900383
19.478567 54.428566 36.900387
20.26363 54.62727 36.900387
18.689999 55.470001 36.900387
19.499998 55.500008 36.900387
20.099993 55.5 36.900379
18.719997 56.099998 36.900383
19.499998 56.31818 36.900383
20.099993 56.099995 36.900379
21.621426 60.621426 36.900387
22.199997 60.899998 36.900379
20.887497 61.574997 36.900383
21.539995 61.469994 36.900379
22.333326 61.400005 36.900383
20.774998 62.099998 36.900379
21.449997 62.325012 36.900387
22.199993 62.279999 36.900383
24.468748 66.637512 36.900387
25.466661 66.800011 36.900387
23.999998 67.5 36.900383
24.516666 67.533333 36.750381
25.523075 67.499992 36.669605
26.314281 67.585716 36.836098
24.799997 68.200005 36.800385
25.464706 68.470596 36.723915
26.364698 68.400002 36.812149
65.87133 19.800001 37.671818
66.564629 19.535295 37.465092
67.274925 19.199997 37.275387
64.799896 20.820002 37.800392
65.542763 20.428572 37.643246
66.337418 20.475 37.200382
13.800003 21.000002 37.800392
14.400004 21.599998 37.200382
15.150004 21.900002 37.650391
61.799896 21.900002 37.200386
62.579891 21.899996 37.480385
63.624889 21.775 37.425388
64.499893 21.6 37.543247
65.574898 21.512499 37.487881
66.57135 21.485712 37.371819
67.34993 21.7125 37.200382
15.572733 22.459089 37.47311
16.200005 22.799997 37.800392
60.584118 22.578947 37.484596
61.424896 22.225 37.57539
62.399891 22.199999 37.800388
66.599915 22.199997 37.300388
67.34993 22.200001 37.200386
15.761545 23.446154 37.361923
16.200005 23.400003 37.800388
59.714188 23.5 37.457531
60.2999 23.1 37.800388
15.900007 24 37.200386
16.48572 24.514286 37.486099
17.100006 24.9 37.200386
58.799908 24.900002 37.200386
59.193657 24.43125 37.556641
16.800003 25.319998 37.800392
17.231256 25.556252 37.462887
58.735622 25.478573 37.500385
68.699944 25.649998 37.200386
17.550005 26.35 37.567059
18.000002 26.849998 37.350388
58.464607 26.505882 37.553326
68.699944 26.249998 37.200386
17.700003 27 37.800392
18.225002 27.554998 37.47039
58.199905 27.461536 37.500389
18.566669 28.516666 37.517059
58.199894 28.554546 37.554935
68.849945 28.65 37.200386
18.780001 29.420002 37.52039
58.499916 29.429998 37.515388
59.099899 29.999996 37.650387
68.759941 29.440002 37.320381
69.29995 29.449999 37.600384
18.816666 30.533333 37.517056
58.799908 30 37.200386
59.464184 30.492857 37.457527
66.899918 30.899998 37.650391
67.499931 30.707142 37.4361
68.466606 30.388887 37.63372
18.456524 31.513042 37.526478
57.649906 31.799997 37.550388
58.462402 31.612497 37.500389
59.319904 31.340002 37.460384
64.799896 31.799999 37.560387
65.599899 31.550001 37.483723
66.599922 31.200005 37.445839
67.649925 31.199999 37.800388
15.900005 32.999996 37.800392
16.680002 32.700001 37.800385
17.487503 32.362499 37.525379
18 32.099998 37.200386
56.699902 32.445 37.500381
57.359905 32.099998 37.260387
64.368637 32.400002 37.500385
10.800001 33 37.200386
11.400001 33.315784 37.500393
12.171431 33.64286 37.628963
15.900007 33.299999 37.800392
16.557692 33.449997 37.535004
17.100002 33 37.200386
55.799904 33.75 37.500389
56.124908 33.174999 37.450386
64.657036 33.299995 37.414669
65.099907 33.771427 37.671814
11.575002 34.674999 37.550388
12.04286 34.285717 37.500389
17.560001 34.240005 37.460384
18.407139 34.628567 37.500389
55.687408 34.443752 37.57539
56.099907 34.725002 37.200386
64.799896 34.200001 37.200386
65.199913 34.539997 37.52039
11.4 35.099998 37.200386
18.9 35.099998 37.57539
19.368748 35.381248 37.481636
55.799908 35.099998 37.800392
56.561443 35.365391 37.500385
57.514191 35.657146 37.286098
58.349903 35.700005 37.200386
64.799896 35.700001 37.200386
65.199905 35.360001 37.52039
19.799992 36.09 37.530384
20.099993 36.690002 37.530388
56.999908 36.000004 37.800392
57.681717 36.081818 37.664028
58.574909 36.206253 37.594139
59.268654 36.637497 37.387886
64.749908 36.575001 37.300388
65.099907 36.409092 37.718571
20.321045 37.5 37.421436
59.4599 37.485001 37.470383
64.616547 37.51667 37.450386
19.799994 38.700005 37.200382
20.099993 38.424999 37.475384
56.659901 38.400002 37.800392
57.499908 38.375 37.800388
58.799904 38.519997 37.800392
59.437401 38.381252 37.462887
64.514885 38.430004 37.515388
18.799995 39.799999 37.200386
19.604994 39.450001 37.305382
20.099991 39.449997 37.800388
56.819908 39 37.800392
57.299908 39.000004 37.800392
58.7999 39 37.800392
59.430946 39.475868 37.479694
63.771313 39.664288 37.264671
64.283234 39.366669 37.600388
18.749998 40.5 37.200382
19.559994 40.500004 37.320381
20.099993 40.5 37.800388
59.849892 40.462502 37.537888
60.466568 40.633335 37.233719
61.542751 40.799999 37.200382
62.634682 40.604347 37.422123
63.524891 40.331253 37.575386
18.899998 41.25 37.200386
19.559996 41.400005 37.320381
20.099991 41.442863 37.800388
59.87133 41.228573 37.800388
60.635197 41.258823 37.500385
61.519886 41.279991 37.620388
62.279888 41.099998 37.800392
16.542858 42.707146 37.350384
17.533335 42.533329 37.467056
18.614996 42.540001 37.47039
19.476917 42.357685 37.52346
12.790909 43.690907 37.391293
13.2 43.800003 37.350388
15.800004 43.574997 37.325386
16.414288 43.414284 37.736103
13.5 44.100002 37.525387
14.359999 44.380005 37.460388
15.400002 44.271427 37.528954
17.849998 51.899998 37.650387
18.521048 51.584202 37.658287
19.484207 51.457893 37.689869
20.510519 51.410526 37.800396
21.574989 51.599995 37.800388
22.199987 51.900005 37.800392
16.799997 52.799999 37.800388
17.462496 52.512508 37.475388
18.529408 52.429413 37.218029
19.478565 52.542854 37.478962
20.558811 52.535294 37.606274
21.599991 52.392857 37.500389
22.535282 52.517651 37.62392
23.099983 52.799999 37.800388
16.65 53.421436 37.607536
17.418749 53.343754 37.237885
18.479996 53.52 37.200382
19.559996 53.280006 37.230381
20.541166 53.329422 37.218029
21.635281 53.505882 37.218029
22.464693 53.400009 37.288616
23.224983 53.450001 37.675388
55.799908 53.700001 37.800392
56.44276 53.700008 37.800388
16.616665 54.449997 37.633717
17.478945 54.442101 37.279327
18.400002 54.566669 37.200382
19.799995 54.000004 37.200386
20.783325 54.466667 37.283714
21.539988 54.439999 37.600391
22.517632 54.352936 37.641567
23.19998 54.100002 37.700394
54.899902 54.719994 37.800392
55.4799 54.400005 37.800392
56.549896 54.500004 37.800396
16.799999 55.200005 37.620392
17.465216 55.565224 37.422127
18.299997 55.5 37.200386
20.681242 55.5 37.387886
21.299988 55.5 37.800388
54.899906 55.200001 37.800388
55.4249 55.550003 37.800388
56.624897 55.500004 37.800392
17.699997 56.199997 37.625389
18.469563 56.504345 37.422119
19.499998 56.700008 37.200382
20.631811 56.454544 37.364017
21.299988 56.442863 37.800388
55.619904 56.099998 37.800392
56.279907 56.099998 37.800392
18.899998 57.000004 37.800392
19.525 57.074997 37.625393
20.614281 57.299995 37.728962
21.224997 57.825005 37.800392
20.621048 58.594734 37.705658
21.624994 58.475002 37.800388
22.199991 58.799999 37.800392
19.71818 59.481815 37.718571
20.504997 59.430004 37.410381
21.599997 59.400002 37.406635
22.517641 59.417652 37.482738
23.537493 59.399994 37.51289
24.524988 59.47501 37.66914
19.472725 60.450001 37.664024
20.494736 60.457893 37.263538
21.471426 60.214287 37.200382
22.527269 60.409092 37.200382
23.624994 60.503574 37.275379
24.613623 60.436363 37.664036
53.999916 60.900002 37.800392
19.518749 61.481255 37.631638
20.274998 61.450001 37.200382
22.679993 61.529999 37.290382
23.418739 61.406254 37.669144
24.299988 61.200001 37.800392
53.836281 61.581814 37.800388
54.299919 61.500004 37.800388
19.799997 62.099998 37.620392
20.448 62.459995 37.452381
21.479998 62.700001 37.200386
22.58181 62.400002 37.309475
23.24999 62.425003 37.675388
20.999998 63.000008 37.800392
21.599998 63.116665 37.517052
22.529997 63.300007 37.530388
23.249994 63.150002 37.710388
23.666664 64.666664 37.800388
24.374994 64.650002 37.800388
23.414286 65.371422 37.557526
24.521734 65.386963 37.448212
25.299995 65.600006 37.700394
23.496004 66.420013 37.488388
24.487497 66.1875 37.200382
25.574993 66.225006 37.380379
26.231245 66.675011 37.57539
23.700001 67.476921 37.500381
24 67.799995 37.400391
26.747358 67.436844 37.468803
27.29999 67.800003 37.800392
24.56842 68.336838 37.500385
25.366665 68.700005 37.43372
26.857895 68.510521 37.35828
27.299992 68.280006 37.800392
25.799999 69 37.620392
26.399994 69 37.650387
28.425001 70.625 37.800388
29.499996 70.666672 37.633724
30.599993 70.638458 37.685005
31.499992 70.800011 37.800388
32.099991 70.800003 37.800388
28.620001 71.100006 37.800392
29.549997 71.350006 37.650387
30.552626 71.478943 37.57933
31.533329 71.416664 37.517052
32.299995 71.425011 37.800388
31.5 72 37.800388
62.69989 20.999998 38.400398
63.633224 20.799997 38.300396
64.527168 20.427271 38.100399
65.099907 20.099998 38.100395
61.649883 21.600002 38.700405
62.489891 21.539997 38.415394
63.507576 21.415384 38.169628
64.349892 21.299999 38.100399
15.900006 22.200001 38.220398
16.31539 22.638462 38.400398
60.809898 22.710001 38.280399
61.499886 22.4 38.400398
62.362385 22.237499 38.250401
16.673687 23.415792 38.353031
17.100004 23.699997 38.700401
59.849895 23.699999 38.250393
60.407043 23.314285 38.464687
16.638466 24.484615 38.238857
17.100004 24.450001 38.700405
59.537399 24.512497 38.425396
16.733337 25.5 38.267063
17.100004 25.5 38.700405
58.799904 25.620001 38.100395
59.146061 25.430769 38.53886
16.800005 26.199999 38.300396
17.160006 26.560001 38.400398
58.694908 26.579998 38.400398
59.099899 26.099998 38.700401
17.533335 27.466667 38.367065
18.000004 27.900002 38.100395
58.424896 27.618748 38.400398
17.700003 28.379999 38.6404
18.125002 28.550001 38.225395
58.449898 28.51667 38.417065
18.27 29.385 38.415398
58.724911 29.224997 38.350399
59.169136 29.699999 38.446556
17.657146 30.728571 38.700405
18.237501 30.4 38.350395
59.687904 30.431997 38.448391
60.2999 30.599998 38.700401
68.909943 30.75 38.190399
69.385666 30.514286 38.421825
16.566669 31.733334 38.633736
17.400003 31.513636 38.414028
18.128574 31.328569 38.100399
57.599911 31.641174 38.400398
58.546059 31.338463 38.446556
59.228481 31.199999 38.357544
64.690804 31.663635 38.48222
65.621643 31.486958 38.426483
66.637413 31.556248 38.344147
67.499931 31.638462 38.169632
68.45993 31.452003 38.424393
12.675003 32.625 38.5504
13.500007 32.549999 38.5504
14.430005 32.459999 38.610405
15.49566 32.400002 38.517784
16.443756 32.362503 38.231647
17.100004 32.099998 38.100395
56.631725 32.331814 38.441303
64.649902 32.485714 38.357544
66.771355 32.228569 38.700405
67.564217 32.25 38.571831
68.099937 32.099998 38.700401
11.452942 33.635292 38.223927
12.470271 33.429729 38.432831
13.500002 33.426315 38.384605
14.400004 33.400002 38.400394
15.411117 33.455547 38.378174
16.575003 33.899998 38.400402
55.719906 33.639999 38.400398
56.099907 33.075001 38.400402
64.799889 33 38.100395
65.24276 33.457142 38.386108
11.490004 34.440002 38.310394
12.187502 34.275005 38.362896
17.49231 34.200008 38.423481
18.300001 34.649998 38.3629
55.499905 34.499996 38.354244
65.549896 34.457142 38.464687
18.866663 35.133335 38.500404
19.324997 35.575005 38.350399
55.668655 35.381252 38.419147
56.21991 35.700005 38.100395
65.549896 35.44286 38.464687
19.706245 36.356247 38.45665
20.099993 36.900002 38.280396
55.7999 36.450001 38.700405
56.485607 36.450005 38.346825
57.562405 36.637501 38.100399
58.439899 36.780006 38.100395
65.364601 36.441177 38.347458
19.799994 37.200001 38.700401
20.099991 37.500004 38.42767
55.709908 37.619999 38.610401
56.4599 37.485004 38.175396
57.599899 37.5 38.100399
58.499897 37.500004 38.100399
65.249908 37.481251 38.381645
20.099993 38.400005 38.400398
55.649902 38.399998 38.550404
56.142765 38.357147 38.100395
57.899902 38.399998 38.100391
58.414185 38.357143 38.100399
64.799896 38.550003 38.100395
65.169136 38.307697 38.446556
20.231243 39.525002 38.437897
55.699905 39.099998 38.600403
56.499897 39.469997 38.380394
57.614906 39.540009 38.370396
58.499897 39.552631 38.258289
59.099899 39.900005 38.100395
64.679901 39.584995 38.325401
65.099892 39.128574 38.571831
20.324991 40.5 38.400394
58.5499 40.450001 38.700405
59.249905 40.542858 38.250397
62.999889 40.800003 38.100395
63.656132 40.706245 38.344147
64.274887 40.325001 38.450401
20.207134 41.378571 38.421833
59.567894 41.460007 38.424397
60.599903 41.700008 38.325397
61.457031 41.614288 38.378971
62.542744 41.271431 38.386108
63.299885 41.100002 38.700405
19.529993 42.540001 38.400398
20.099993 42 38.400398
12.899999 43.800003 38.400398
16.714287 43.757141 38.143253
17.474998 43.537495 38.3629
18.552628 43.247375 38.353035
13.51875 44.212498 38.3629
14.345455 44.399998 38.454948
15.562502 44.400005 38.381649
16.449999 44.100002 38.450397
18.599997 50.871429 38.700405
19.524998 50.700008 38.400402
20.531244 50.700008 38.381645
21.599991 50.871429 38.700397
17.657141 51.614277 38.400398
18.599998 51.125 38.225395
19.299997 51 38.100395
20.849991 51 38.100395
21.599989 51.138462 38.215786
22.457132 51.642857 38.400398
53.499908 51.900002 38.700401
54.63324 51.733334 38.700405
55.499901 51.700001 38.700405
56.508995 51.81818 38.700405
16.718184 52.663635 38.48222
17.099998 52.237503 38.325397
22.799982 52.199997 38.100391
23.266653 52.5 38.383732
52.585625 52.585712 38.636116
53.566574 52.516666 38.483727
54.599903 52.575001 38.5504
55.522976 52.54615 38.515781
56.582508 52.486965 38.296047
57.524906 52.574997 38.569149
16.358822 53.417656 38.400394
23.399981 53.370007 38.370399
51.899914 53.520008 38.700401
52.424908 53.400009 38.456646
53.495358 53.386368 38.12767
54.599911 53.330772 38.123478
55.499905 53.325001 38.150398
56.549904 53.280006 38.100399
57.659904 53.400002 38.1754
58.307037 53.464291 38.571831
16.23333 54.466667 38.333729
21.749985 54.900002 38.100395
22.599983 54.899998 38.100399
23.249983 54.48 38.385399
51.899914 54 38.700401
52.499912 54.161537 38.585014
53.6759 54.348003 38.48439
54.479908 54.480003 38.140396
55.199905 54 38.100395
56.999897 54.300003 38.100395
57.599907 54.514282 38.16468
58.399887 54.449997 38.53373
16.514286 55.514294 38.400398
21.787489 55.537498 38.100399
22.484194 55.436844 38.447765
54.536755 55.484215 38.36882
56.999901 55.800003 38.100395
57.629902 55.574993 38.295399
58.199894 55.328575 38.571827
16.799999 56.099998 38.520397
17.373911 56.530437 38.322136
21.787487 56.456249 38.26915
22.199986 56.099998 38.520405
53.999908 56.250004 38.700405
54.668087 56.50909 38.495846
55.457043 56.507145 38.22897
56.5499 56.423073 38.388859
57.399895 56.200001 38.600403
17.849998 57.000004 38.600399
18.516665 57.166668 38.383728
19.484207 57.552631 38.353031
20.299997 57.800003 38.100391
21.663153 57.347363 38.226715
22.514275 57.571434 38.386112
23.589464 57.710522 38.510921
24.299988 57.900005 38.700401
55.542763 57 38.700405
19.599998 58.583332 38.433731
20.174997 58.275002 38.100391
21.899994 58.200005 38.100395
22.537495 58.462502 38.100395
23.558815 58.429413 38.118046
24.599983 58.526093 38.400394
54.599915 58.799995 38.700405
18.899998 59.52 38.700401
19.299999 59.34 38.260395
24.824984 59.287498 38.175396
25.199982 59.400005 38.5504
53.874924 59.449997 38.625404
54.599915 59.475002 38.5504
55.387417 59.550003 38.606651
18.899998 60.449997 38.367065
19.199997 60.450001 38.100395
24.899984 60.840004 38.160393
25.199984 60.388233 38.400398
52.799915 60.720001 38.700401
53.496685 60.425808 38.352005
54.616581 60.48333 38.183731
55.533245 60.5 38.600395
18.899998 61.200001 38.700401
19.223074 61.592304 38.35424
23.849987 61.650002 38.100395
24.642845 61.51429 38.34325
52.799915 61.380005 38.700401
53.271339 61.5 38.271824
54.799911 61.5 38.100395
55.55616 61.518749 38.512897
56.099907 61.200001 38.700401
19.641174 62.347061 38.418049
20.15 62.700001 38.200394
23.890898 62.42728 38.154945
24.381805 62.318188 38.564037
53.474922 62.410709 38.357536
54.657059 62.471428 38.300396
55.336277 62.236374 38.509487
20.599998 63.116665 38.48373
21.569998 63.539997 38.385399
22.4 63.850006 38.250393
23.672722 63.518177 38.209488
24.524992 63.637505 38.606647
53.657063 63.000004 38.700405
54.299915 63 38.700405
22.718184 64.445457 38.536762
23.375 64.400002 38.125401
24.707138 64.39286 38.186115
25.274994 64.550003 38.575401
22.799999 65.446159 38.331169
23.099998 65.100006 38.100399
25.578941 65.32106 38.368816
26.099991 65.700005 38.700401
51.557072 65.700005 38.700405
52.199932 65.700005 38.700397
22.800001 66.128578 38.571827
23.164286 66.557144 38.336113
25.799992 66 38.100395
26.586193 66.465523 38.431431
49.699932 66.800003 38.600399
50.603935 66.456009 38.532394
51.564629 66.476471 38.523926
52.199921 66.500008 38.700405
23.431578 67.5 38.416187
26.99999 67.260002 38.160393
27.407131 67.542854 38.528973
48.899937 67.671432 38.571827
49.48494 67.440002 38.310398
50.639935 67.454994 38.100399
51.63522 67.517647 38.523926
23.849998 68.25 38.700401
24.428568 68.457138 38.328972
25.199997 68.699997 38.100399
26.999992 68.699997 38.100395
27.369221 68.37693 38.446556
48.749943 68.400002 38.550396
49.443695 68.418747 38.119152
50.560646 68.464279 38.325397
51.299934 68.100006 38.520397
25.5 69.123528 38.435692
26.566664 69.183334 38.400398
27.514282 69.557144 38.600395
28.485708 69.657158 38.386105
29.499996 69.800011 38.540401
30.524992 69.900002 38.587902
31.499987 69.900002 38.700405
32.099987 69.899994 38.700397
48.719948 69 38.700401
49.499939 69 38.482212
50.099941 69 38.700397
27.576925 70.5 38.331169
28.499998 70.199997 38.100395
29.549995 70.200012 38.100399
30.633322 70.233345 38.200394
31.499987 70.349998 38.250397
32.427261 70.500008 38.400394
43.799957 70.800003 38.700401
44.599953 70.800003 38.700405
27.9 71.100006 38.520405
28.499996 71.287506 38.344147
29.512499 71.625008 38.3629
32.774994 71.400002 38.385395
36.719982 71.699997 38.700401
37.379982 71.699997 38.700401
43.599964 71.26667 38.700405
44.549961 71.300011 38.700405
45.479958 71.25 38.700401
30.458822 72 38.382751
31.499996 72 38.400402
32.457146 72.285721 38.557537
33.477268 72.531815 38.536758
34.499992 72.540001 38.520397
35.587494 72.412514 38.51289
36.616653 72.383331 38.450394
37.499992 72.438469 38.538853
33.474998 73.200005 38.575397
34.524998 73.325005 38.550396
35.499996 73.300003 38.540401
36.566662 73.200005 38.533733
37.199989 73.199997 38.700397
60.899891 21.900002 39.000404
61.199894 21.674999 39.000404
59.914185 22.671429 39.38612
60.578472 22.457144 39.150402
61.199898 22.349998 39.000404
16.800005 23.200003 39.000404
17.100006 23.699999 39.150402
58.799908 23.699999 39.900414
59.543377 23.41304 39.561275
60.428471 23.485714 39.171837
17.541182 24.423527 39.388641
58.574902 24.48 39.765404
59.675892 24.516001 39.384403
60.299896 24.224998 39.150406
17.610003 25.469999 39.030403
18.05294 25.5 39.6357
58.519905 25.460001 39.800411
59.444897 25.499998 39.360405
17.600002 26.400002 39.000401
18.1875 26.38125 39.544155
58.671329 26.228567 39.900414
59.233231 26.51111 39.467075
17.640003 27.390003 39.000401
18.171427 27.457142 39.557549
58.7999 27.400002 39.000401
59.339901 27.599997 39.540409
17.700003 28.575001 39.075405
18.1 28.459999 39.620407
58.799904 28.379999 39.000401
59.427174 28.513634 39.532227
17.583338 29.483334 39.35041
18.000004 29.228573 39.771843
59.666576 29.333338 39.333744
60.449902 29.609997 39.810417
16.680004 30.779999 39.450401
17.325003 30.365623 39.431656
59.999905 30.450003 39.000401
60.587402 30.374994 39.262909
61.484894 30.405003 39.630409
62.479897 30.66 39.780411
63.599888 30.75 39.750412
64.414177 30.814283 39.728985
69.599945 30.900002 39.000404
14.700005 31.800001 39.000401
15.586962 31.682604 39.300411
16.450006 31.387506 39.487919
57.545361 31.63636 39.47768
58.449905 31.250004 39.467079
59.519897 31.200005 39.480408
60.629902 31.200001 39.690414
61.499893 31.300001 39.700409
62.618069 31.418184 39.76405
63.652832 31.535295 39.600407
64.487892 31.463999 39.46841
65.330673 31.63846 39.138866
68.89994 31.700003 39.100403
69.586296 31.540907 39.464046
12.900003 32.700005 39.000404
13.585717 32.614288 39.043255
14.460008 32.400002 39.26041
15.400005 32.349998 39.767075
56.73452 32.400005 39.461948
64.533218 32.283337 39.367081
65.549904 32.384998 39.315407
66.479919 32.52 39.030403
67.633263 32.633335 39.100403
68.513741 32.337929 39.527996
69.29995 32.099998 39.900414
12.766668 33.499996 39.033737
13.480002 33.379997 39.180408
14.383338 33.416664 39.350407
15.464521 33.483871 39.552025
16.478575 33.899998 39.38612
55.799915 33.774998 39.425411
56.152855 33.194118 39.529819
65.582512 33.378258 39.235191
66.644913 33.494999 39.300411
67.442238 33.311531 39.554256
68.099937 33.000004 39.900414
16.800005 34.200005 39.60041
17.439133 34.356529 39.456928
18.115385 34.73077 39.438877
55.566574 34.466667 39.433739
65.838364 34.476929 39.323483
66.616577 34.499996 39.733746
67.199921 34.200001 39.900414
18.647999 35.339996 39.504406
19.199997 35.700005 39.000404
55.499901 35.400002 39.476883
65.764175 35.357147 39.51469
18.900002 36 39.900414
19.422581 36.445164 39.455246
55.581715 36.449997 39.382229
65.699913 36.471424 39.343273
19.733328 37.466667 39.550411
20.099993 37.800003 39.000404
55.405163 37.531578 39.442516
65.643646 37.518749 39.41291
19.799995 38.199997 39.800411
20.099995 38.439999 39.440407
55.349899 38.300003 39.483738
65.549904 38.445 39.450405
20.236359 39.49091 39.450409
55.637402 39.312489 39.412914
56.164192 39.878574 39.407555
64.799889 39.900002 39.000404
65.233223 39.477776 39.47818
20.329407 40.517647 39.459232
56.740807 40.295464 39.477688
57.565285 40.626919 39.36964
58.299908 40.750004 39.000401
63.857029 40.800007 39.300407
64.487381 40.450001 39.487911
19.799995 41.639999 39.840412
20.149994 41.350002 39.367077
58.554447 41.222725 39.436771
59.530331 41.634792 39.456936
60.599899 41.700008 39.450413
61.578838 41.684216 39.458302
62.579895 41.340004 39.450409
63.484497 41.100002 39.508102
18.824999 42.862499 39.637913
19.499996 42.400002 39.420406
12.9 43.757141 39.471836
13.328569 43.799995 39.771843
16.725 43.800003 39.675411
17.487499 43.637497 39.487904
18.442101 43.294739 39.363567
13.523077 44.099998 39.300407
14.399999 44.216663 39.433743
15.495653 44.269569 39.404755
16.439999 44.099995 39.400406
18.866665 50.733341 39.500412
19.499998 50.700008 39.450405
20.549995 50.700008 39.450405
21.617638 50.735302 39.476879
54.63324 50.700005 39.800415
55.549908 50.775005 39.700413
17.453571 51.600002 39.450405
18.300001 51.064289 39.386127
21.89999 51.000004 39.000404
22.499989 51.366669 39.433739
23.099985 51.899998 39.600414
52.595364 51.695457 39.545868
53.5499 51.264709 39.371002
54.581161 51.131248 39.169155
55.4249 51.124996 39.125401
56.5499 51.308834 39.406284
57.520958 51.789478 39.553043
16.642857 52.48571 39.471836
17.099997 52.200005 39.000404
23.299984 52.500004 39.433739
51.824905 52.674992 39.65041
52.264191 52.328579 39.236118
57.818081 52.281826 39.191315
58.310417 52.578949 39.55304
15.900002 53.571434 39.771839
16.219997 53.320007 39.340412
23.399981 53.400005 39.450405
51.659912 53.495995 39.324406
58.671329 53.357143 39.443268
15.807693 54.461544 39.485023
16.200001 54.900005 39.000404
22.799984 54.900002 39.90041
23.238443 54.438473 39.450405
51.785622 54.5 39.514694
52.430672 54.784626 39.069633
53.31419 54.814281 39.000401
58.766575 54.450001 39.233746
59.099888 54.399998 39.900414
15.899999 55.450001 39.650414
16.199999 55.666664 39.167068
22.619982 55.5 39.450413
52.527172 55.459091 39.586769
53.549911 55.518753 39.131657
58.599899 55.549992 39.362907
59.099895 55.200001 39.90041
16.544443 56.400005 39.467072
17.099998 56.700005 39.000404
21.899984 56.699997 39.900414
22.199984 56.418755 39.43166
52.799908 56.099995 39.900414
53.399902 56.434612 39.346565
56.899899 56.700001 39.000401
57.695351 56.536362 39.286774
58.315281 56.215378 39.623482
17.437498 57.150005 39.46291
18.449999 57.524994 39.41291
19.299999 57.833332 39.367073
22.464689 57.123528 39.49453
23.543459 57.365219 39.404758
24.449986 57.75 39.40041
51.719917 57.900002 39.900414
52.517563 57.74118 39.653351
53.554737 57.425812 39.397182
54.581161 57.525005 39.019154
55.531487 57.552631 39.300404
56.506348 57.251617 39.493954
57.428467 57 39.771839
18.900002 58.800003 39.900414
19.288235 58.46471 39.388641
24.899982 58.254551 39.354954
25.199984 58.674999 39.475407
50.849922 58.542854 39.750408
51.578487 58.414284 39.643261
52.521351 58.478573 39.38612
53.523438 58.464706 39.053345
54.674911 58.312508 39.000401
55.54277 58.500008 39.286121
56.099911 58.671429 39.771843
18.771427 59.385719 39.443268
25.416647 59.383335 39.483746
50.628494 59.414295 39.571838
51.578487 59.314281 39.321835
52.499912 59.375004 39.350414
53.290821 59.400002 39.054947
55.762405 59.250004 39.037903
56.231159 59.400005 39.637913
18.657145 60.471424 39.414692
25.38748 60.362507 39.425411
50.651531 60.435482 39.48428
51.547741 60.443481 39.156933
52.433247 60.383335 39.050407
53.099918 60.000008 39.000404
56.249897 60.415386 39.392719
18.794998 61.499992 39.480408
19.199999 61.800003 39.000404
24.899984 61.707687 39.415794
25.199982 61.200005 39.400406
50.871346 61.200005 39.771839
51.599915 61.414288 39.771843
52.452549 61.5 39.316193
55.799911 61.799999 39.000401
56.204906 61.499992 39.480412
18.900002 62.100006 39.900414
19.363638 62.440907 39.354954
24.547043 62.400002 39.441586
51.899918 62.099995 39.900414
52.547291 62.38422 39.505669
53.099915 62.550003 39.000404
55.569138 62.446152 39.36964
56.099903 62.100002 39.900414
19.718182 63.081821 39.682232
20.499996 63.490002 39.410404
21.412497 63.88126 39.33791
24.699984 63.283333 39.33374
25.447813 63.678261 39.535191
26.099983 63.900005 39.900414
50.819923 63.900002 39.900414
51.674915 63.787502 39.900417
52.554466 63.354542 39.668587
53.508255 63.600018 39.392071
54.611019 63.288891 39.433743
55.199913 63 39.720409
21.771427 64.200005 39.771843
22.316668 64.516663 39.35041
25.684605 64.430771 39.115788
26.440899 64.540901 39.695862
50.567928 64.536003 39.660404
51.583252 64.466675 39.450405
52.483261 64.566658 39.700405
22.405264 65.415794 39.426727
26.573063 65.3423 39.33503
27.399988 65.600006 39.800411
49.718113 65.481819 39.8186
50.543407 65.41304 39.313454
51.569923 65.190002 39.000401
52.581749 65.318184 39.259502
53.099918 65.571426 39.771843
22.564283 66.482147 39.450413
26.899988 66.100006 39.100403
27.599981 66.500008 39.490406
48.699936 66.660004 39.800411
49.442242 66.438469 39.415794
50.199932 66.100006 39.10041
52.633251 66.522224 39.355965
53.099922 66 39.720409
22.800001 67.349998 39.60041
23.164288 67.649994 39.321835
27.789465 67.468414 39.395149
47.899937 67.599998 39.825417
48.586292 67.459099 39.314041
51.899925 67.769997 39.360405
52.259933 67.340004 39.500408
23.541178 68.258835 39.512173
24.16 68.640007 39.340405
27.761532 68.400009 39.231174
28.39999 68.460007 39.760414
29.279987 68.699997 39.900414
47.999939 68.480003 39.56041
48.299942 68.324997 39.037903
50.799934 68.660004 39.42041
51.449924 68.250008 39.400406
24.699997 69.083336 39.533741
25.484207 69.41053 39.458302
26.457144 69.671425 39.40041
27.479996 69.360001 39.000397
28.524988 69.074997 39.175404
29.588877 69.200005 39.33374
30.586943 69.352165 39.443886
31.526073 69.365219 39.535187
32.423058 69.669235 39.531174
42.89996 69.900009 39.900414
43.479954 69.739998 39.760414
44.481773 69.900009 39.764046
45.479958 69.899994 39.90041
48.560814 69.169571 39.404755
49.531517 69.268425 39.410934
50.236294 69 39.518589
27.287996 70.487999 39.432407
32.939991 70.425003 39.345409
33.299984 70.800003 39.900414
35.999977 70.800003 39.900414
36.599976 70.799995 39.900414
37.199974 70.800003 39.900414
42.674969 70.514999 39.630402
43.429363 70.429413 39.12394
44.609959 70.349998 39.210411
45.615753 70.484207 39.331985
46.460815 70.5 39.483021
47.447323 70.578949 39.789879
27.899998 71.100006 39.450409
28.5 71.325012 39.450413
29.435291 71.629417 39.476879
32.999989 71.200005 39.100403
33.557125 71.400002 39.471836
34.499985 71.400002 39.600407
35.592838 71.410713 39.471832
36.599983 71.347069 39.300404
37.546135 71.411545 39.42733
38.099979 71.699997 39.900414
40.799973 71.700005 39.900414
41.6217 71.504349 39.639538
42.629967 71.340004 39.270409
43.499962 71.611763 39.300404
44.479965 71.700005 39.220402
45.654507 71.618195 39.082218
46.513596 71.495453 39.204956
47.493057 71.399986 39.65213
30.374996 72 39.435402
31.588236 72.141174 39.406288
32.383335 72.583336 39.450405
33.749992 72 39.000401
34.499989 72.000008 39.000408
35.249985 72 39.000404
37.799988 72.600006 39.000404
38.449986 72.425018 39.408745
39.629978 72.555 39.555408
40.499981 72.339134 39.522148
41.578098 72.478134 39.216034
42.519203 72.41539 39.565792
43.199966 72 39.900414
44.699963 72 39.750412
45.599964 72 39.700413
46.328533 72 39.771843
32.700005 73.200005 39.450401
33.547821 73.343468 39.404755
34.464703 73.5 39.529819
35.537502 73.424995 39.46291
36.599995 73.200005 39.450405
37.552937 73.288239 39.459229
38.504341 73.526085 39.509106
39.537491 73.612511 39.562904
40.517635 73.376465 39.58276
41.421406 73.200005 39.578979
58.619904 23.879999 40.200417
17.512505 24.637497 40.237915
57.824909 24.775 40.550415
58.199902 24.349997 40.300419
17.700001 25.200005 40.425419
18.1 25.633335 40.333755
57.615696 25.499998 40.500416
58.199905 25.799999 40.200417
18.300001 26.325001 40.387917
57.61491 26.429998 40.560421
58.476826 26.630768 40.223492
59.099903 26.999998 40.200417
18.441177 27.370586 40.376888
57.566574 27.166668 40.800419
58.469902 27.464996 40.635422
59.249905 27.685711 40.264706
18.300001 28.554546 40.445869
58.799908 28.200003 40.800423
59.577171 28.527271 40.568604
60.2999 28.800003 40.50042
18.160002 29.420002 40.480419
59.871334 29.228573 40.800419
60.599899 29.414286 40.486137
61.424896 29.812498 40.38792
62.099892 29.999996 40.200417
17.592859 30.621429 40.328991
18.000002 30.299999 40.650421
60.899902 30.000002 40.800423
61.566563 30 40.633751
62.599888 30.385715 40.586136
63.549892 30.674997 40.45042
64.274887 30.899998 40.200417
16.700005 31.699999 40.200417
17.415005 31.5 40.470421
57.774906 31.674997 40.45042
58.479904 31.34 40.52042
59.479904 31.200005 40.560417
60.576828 31.292309 40.50042
61.499897 31.5 40.500416
62.616562 31.533333 40.550419
63.635189 31.535294 40.553364
64.328468 31.500002 40.371845
15.900007 32.549995 40.200417
16.569235 32.400002 40.223492
17.418755 32.381248 40.631668
56.874905 32.575001 40.45042
57.36657 32.166672 40.567085
64.19989 32.099998 40.200417
68.849945 32.649998 40.300415
69.599945 32.400002 40.455421
70.199959 32.400002 40.800419
15.900005 33 40.200417
16.566671 33.433334 40.350418
17.169233 33.346153 40.731186
56.3624 33.412498 40.512924
67.718109 33.81818 40.391327
68.437439 33.287495 40.537918
69.29995 33 40.800423
16.800005 34.200005 40.440418
17.362503 34.649998 40.462921
55.799908 34.5 40.350414
56.099915 34.350006 40.750423
66.89991 34.799995 40.275417
67.331184 34.462502 40.556667
17.775 35.212502 40.650421
18.225 35.512505 40.387924
55.730675 35.400002 40.50042
65.957054 35.57143 40.328983
66.628471 35.328571 40.543278
18.671999 36.396 40.572422
19.199997 36.899998 40.200417
55.537407 36.393745 40.519173
65.785606 36.42857 40.543278
66.299911 36 40.800423
