ply
format ascii 1.0
comment PCL generated
element vertex 966
property float x
property float y
property float z
element camera 1
property float view_px
property float view_py
property float view_pz
property float x_axisx
property float x_axisy
property float x_axisz
property float y_axisx
property float y_axisy
property float y_axisz
property float z_axisx
property float z_axisy
property float z_axisz
property float focal
property float scalex
property float scaley
property float centerx
property float centery
property int viewportx
property int viewporty
property float k1
property float k2
end_header
109.35001 67.275002 -3.8146973e-06
109.50037 71.399994 -3.8146973e-06
110.70038 72 -1.9073486e-06
109.30322 67.931244 0.12187737
109.5919 70.591545 1.2084874
110.15547 72.498978 1.5061386
111.00038 73.242844 1.5428721
45.899963 86.999992 2.700026
44.999969 87.300003 2.5200248
46.036644 88.130005 2.3666909
109.61037 68.599991 5.1200519
107.50945 71.181824 5.3546004
108.86854 70.154739 4.2168012
107.47729 72.5923 5.3769774
109.2267 73.538162 4.3132024
111.1504 74.421425 3.8464673
42.738422 77.238457 5.630827
110.12539 75.175011 5.425055
111.3413 75.490913 5.3455105
101.35744 80.557144 5.585772
103.37399 80.099998 5.2211056
105.89652 80.312645 5.293726
101.25323 82.158836 5.5471163
103.39471 82.34153 5.3937201
106.26878 82.121033 5.3447938
44.999969 86.999992 4.2857523
45.412464 86.999992 4.7625461
44.999969 87.085716 3.8143222
45.843021 87.656967 4.1240931
109.07985 68.250015 7.4331093
106.68863 70.55204 7.5383377
109.54205 70.40554 7.3389606
104.38266 73.773521 8.320672
106.11403 73.407578 6.9955249
109.87421 72.973846 7.3893051
111.01913 72.900002 7.8188295
43.149967 76.72831 7.4652929
104.37035 75.929985 8.5350895
106.45097 76.321754 7.9253736
109.29528 76.372955 7.4051805
111.50151 76.826385 7.3649096
43.936718 79.310211 7.6470194
45.412457 80.699997 8.7000885
100.80209 79.938194 7.380075
103.25421 78.601746 7.2306089
106.54926 79.099571 7.2767267
108.10532 79.979988 8.1600828
111.98222 78.081818 8.6182699
44.463959 82.147987 8.2000828
45.416618 81.583344 8.6000881
98.700264 83.700005 8.7000914
99.891899 82.536888 7.1531415
103.2319 83.660492 6.1579576
107.07442 82.855583 6.2519131
108.18457 82.443565 7.6990833
44.633293 84.299995 8.7000895
98.700272 84.180008 8.7000923
100.30835 85.262558 7.7233
103.32577 85.442841 7.4588017
106.47109 85.441422 6.9981146
108.19885 85.227692 8.2570047
45.487465 87.599983 6.0000606
101.1003 87 8.7000904
104.10034 87.39003 8.4300861
106.32594 87.481392 8.2291498
107.48219 68.645432 10.781928
108.81242 67.88018 10.267345
104.59536 71.437492 10.777611
106.00359 70.025787 10.219451
109.27541 70.730385 10.3626
103.42643 73.487213 10.313848
107.70034 72.518181 10.95011
109.29991 73.575653 10.27311
111.22539 74.144997 9.3900948
43.506264 76.909088 10.298702
101.52782 76.792488 11.542617
103.07158 76.58342 9.944006
105.77534 77.40831 9.1417589
110.42979 76.035294 10.617756
111.38076 76.242859 10.575107
44.696621 78.763321 10.233437
45.62112 80.159981 10.464813
100.67731 79.688782 10.417527
102.40031 78.263176 10.015892
107.34654 78.561531 9.215477
109.17035 79.498833 10.320101
111.87331 79.272156 10.409876
44.481544 82.281586 10.463263
46.582325 82.403549 10.256565
48.584946 83.309998 11.077611
98.700256 83.417633 10.076573
99.27047 82.140518 10.456867
108.51318 82.356705 10.441898
44.818829 84.967934 10.222746
46.383305 85.263924 10.325104
49.68108 85.450974 10.896343
51.299953 86.849998 11.550115
98.700226 84.720963 10.098493
99.611107 86.067429 10.424013
107.31464 86.89286 11.592973
108.52943 85.513817 10.336286
46.702152 88.376076 10.780538
49.683189 88.367134 10.826279
51.557091 88.451797 11.405472
98.378464 89.465439 10.6092
100.44451 88.270935 10.065201
103.25407 88.448509 9.2374086
106.65814 88.324524 10.312736
108.08473 88.359375 10.640733
47.203083 90.768753 11.545429
49.631859 91.14048 11.513908
51.549946 90.512505 11.575118
97.747719 91.352448 10.582069
100.27789 91.446678 9.2867661
103.41597 91.435318 9.2439919
106.48701 91.50824 9.8984509
108.27341 91.173035 11.039438
97.791206 94.217644 11.181725
100.2357 94.373169 10.26796
103.40491 94.373764 10.35377
106.3966 94.410355 11.000113
108.0002 93.34285 11.70012
98.571426 96.428574 11.700121
100.4116 96.899986 11.292967
103.10692 96.682755 11.324254
105.92507 96.500015 11.608454
55.865932 110.05714 11.304502
58.574287 110.10862 11.108685
60.399979 110.60001 11.600119
53.73 113.12999 11.700118
55.356224 112.28698 10.908392
58.797413 112.29314 10.513045
61.380413 112.47173 11.200109
63.299973 113.69999 11.70012
53.700001 114.17999 11.700122
55.397617 115.3365 11.083941
58.685287 115.34782 10.764812
61.684605 115.39937 10.875628
63.903595 115.5651 11.410957
56.318176 117.74089 11.350112
58.493862 118.46535 11.002151
61.632854 118.38433 10.429397
64.019478 118.37034 11.028926
59.136189 120.49139 11.405286
61.588516 120.91718 11.181258
63.641834 120.43952 11.302442
64.92524 124.19218 11.363585
67.460533 124.30104 11.059052
69.134727 124.34694 11.326645
65.324997 126.21002 11.565117
66.833359 126.15836 11.466784
107.49512 68.581566 13.081712
108.977 67.828735 13.152262
104.50359 71.33606 13.224726
105.9435 69.85685 13.374647
109.49525 70.533913 13.400141
101.70031 74.999992 13.740139
103.06088 73.405952 13.39635
109.77115 73.322113 13.214738
43.453804 77.561546 12.092431
100.49166 76.555977 13.332191
102.0003 75 12.300124
110.50943 76.093384 13.527409
111.57003 77.354454 13.260892
44.52496 78.793755 12.512628
45.806198 80.193748 12.84388
98.217438 79.485939 13.907948
99.878296 79.360977 12.678183
103.65914 80.894104 12.847188
110.06705 80.666664 12.100124
111.82982 80.267639 12.511893
44.4687 81.881233 13.365766
46.628757 82.381462 13.302568
48.697529 83.193977 13.413389
98.043579 82.349998 14.250144
99.965744 82.949295 13.431616
103.65974 82.100662 13.198265
105.31906 82.139069 12.764192
109.70467 82.373932 12.93364
112.11669 81.825569 13.639676
44.999966 86.325012 12.675129
46.895855 85.494507 13.172744
49.864799 85.462341 13.433805
51.299942 86.75293 13.411901
98.504135 85.03846 14.700153
100.28063 85.342926 13.389122
103.32984 85.30983 13.487026
106.48653 85.59462 13.635015
108.79157 85.257507 13.515687
46.731018 88.322395 13.872543
49.204483 88.353378 13.998646
52.023949 88.351997 13.286132
98.700279 88.668739 13.462637
99.999001 88.032883 13.414618
103.55509 87.387543 13.482617
106.34089 88.405052 13.390013
108.07932 89.478943 12.347494
47.051998 91.494858 13.410986
49.635403 91.568596 14.065862
52.592716 91.430405 13.195505
98.006744 91.457649 13.205431
99.000282 90.112503 14.212645
107.70036 90.060005 14.190143
108.58504 91.346153 13.336678
47.520603 94.379387 13.175395
49.587952 94.306831 12.807463
52.656994 94.416054 13.613613
97.264938 94.554413 13.256028
107.62728 95.691872 12.802829
108.41921 94.346985 13.373294
47.67857 96.449997 14.507291
49.584202 97.289474 13.972067
52.439587 97.363121 14.194785
98.046783 97.187469 13.518982
99.900017 98.304161 12.634152
103.54853 98.07576 12.454677
106.33482 97.467796 13.312821
50.590908 99.08181 14.70015
52.185703 99.157158 14.700149
100.59219 99.366379 13.585859
103.15684 99.394012 13.746755
105.00024 99 14.357291
53.760002 110.7 13.200137
55.408882 110.01679 13.198579
58.644894 109.92097 13.264905
60.559437 110.48917 12.664995
52.985943 112.26095 13.365758
54 111.08572 12.428697
59.999981 111.06 14.250145
61.532757 112.40569 13.236815
63.299976 113.7 12.180124
53.187683 114.83074 13.472449
54.785576 116.35673 13.518696
57.599987 116.45454 14.618331
62.452477 114.105 14.152646
64.369522 115.34204 13.403043
55.933357 118.21537 13.552701
57.356243 118.2 13.518887
64.832321 118.42204 13.585437
66.342857 119.7 14.70015
89.263084 119.19001 13.88157
91.361519 118.65482 13.459815
94.066574 118.57774 13.693511
56.849998 120.23999 14.550146
58.422447 121.17659 13.333305
61.61908 122.24076 13.288281
64.589256 121.41656 12.983561
67.37513 121.56178 13.503008
69.08783 122.47318 13.492819
86.700218 122.69999 14.700145
88.910927 121.42853 13.517992
91.420753 121.59758 12.847626
93.832474 121.04794 13.629592
62.417316 123.60864 13.69053
63.573399 124.54751 12.902037
68.000038 124.375 12.075124
70.020271 124.53913 13.481293
72.968124 125.08147 14.118703
76.725121 125.62498 14.70015
79.433479 125.59998 14.650148
82.443947 125.34375 14.456393
85.680183 124.64181 13.86742
88.362198 124.37605 13.284644
90.480858 123.89417 13.776842
64.949997 126.3063 13.327795
67.466675 126.56464 13.390339
70.357498 127.45406 12.955834
73.486763 127.50397 12.95421
76.287933 127.17686 13.379141
79.424751 127.30086 13.495884
82.409035 127.23601 13.285582
85.282059 127.2732 13.628717
87.85733 126.50286 13.622993
74.660866 129.11742 13.526222
76.318069 129.53999 13.511752
79.32415 129.42197 13.481526
82.293419 129.41125 13.661068
84.228668 129.12859 13.671565
104.52031 71.580002 15.240155
105.23366 70.733337 15.06682
110.47356 70.843903 15.329428
101.70031 74.999992 16.107857
102.83508 73.532608 15.642549
107.00624 74.31176 16.623697
109.59509 73.554405 15.82822
100.51141 76.557419 16.218693
107.06086 76.302299 16.616455
108.98389 76.71064 15.620024
98.220253 79.948891 16.151283
99.206268 78.492531 16.638975
109.84984 78.309883 16.638638
111.76635 78.434021 16.413998
44.774956 82.800003 15.000151
46.085674 83.199989 15.185866
48.814232 83.21785 15.289442
97.183037 82.366226 16.337751
101.7003 83.700005 15.000158
102.96954 83.526924 15.115538
110.5425 83.510521 15.347522
112.51441 82.956032 16.152163
47.096764 85.065941 15.766117
49.854851 85.690208 15.958982
51.299942 86.718742 15.956412
97.075912 85.402084 16.074244
100.97885 85.042854 15.000157
103.39354 85.266106 15.086586
105.67331 85.889191 15.000156
109.769 85.500008 16.310047
111.49285 84.305664 17.02659
49.935986 88.274544 16.367863
52.000641 88.344978 16.385406
97.371078 88.412437 16.248955
99.069496 89.146164 15.092463
104.40033 87 15.000156
107.09203 87.933342 15.04182
108.58526 88.306328 16.154581
46.766636 92.600006 15.000153
50.69997 90.782921 16.10504
52.597775 91.599113 16.397108
98.037033 91.305405 16.603947
99.031845 90.347366 15.410683
107.48734 91.476013 16.554163
108.29742 91.494072 16.004131
47.503525 94.207138 16.278736
49.682465 94.28566 16.484978
52.571228 93.839981 16.419544
54.632725 94.782364 16.608566
98.438919 93.947533 16.021944
99.972481 95.120918 16.775484
102.78922 95.611115 17.589066
107.42912 94.672607 17.178259
108.33254 94.430344 15.900163
47.905262 97.610527 15.647529
48.737991 97.75798 15.960161
53.949993 97.525002 15.012652
55.116554 97.414574 16.388908
98.70031 96 15.000155
100.40607 97.47258 15.715013
103.35475 97.456161 16.926479
106.31288 97.280022 16.500166
49.588589 100.29994 16.298735
52.60754 100.55473 15.4379
55.583328 100.37665 16.666849
57.374981 101.45 17.575178
101.11189 99.103851 15.219386
103.32569 99.212616 15.565988
105.00037 99 15.343017
50.518593 102.51627 17.316458
52.30645 103.35326 16.514698
55.71909 103.40723 16.484385
57.664288 103.61144 17.323032
52.837788 106.26293 16.754025
55.605389 106.33578 15.756232
58.663757 106.413 16.521914
60.29998 107.55001 17.400177
53.114285 109.3143 16.838264
55.290791 109.28882 15.404761
59.030777 109.21242 15.600156
60.654526 109.52728 17.209272
53.110031 112.43499 16.311832
54.100002 111.27778 15.955718
59.999977 113.7 15.900162
61.336323 112.38139 16.49744
63.381798 113.48181 17.618361
53.08408 114.80176 16.056801
55.449524 115.54488 16.343155
58.439701 115.56574 16.18646
61.760426 114.27686 15.821039
63.803703 115.32313 16.527033
89.34623 116.268 17.130175
91.364059 116.02557 16.781029
93.000267 116.58947 16.863331
56.343533 118.87411 15.621335
57.718159 118.0909 16.509256
62.768562 119.26716 16.465879
64.25795 118.44094 16.343803
66.828003 119.10239 16.444973
88.954414 118.1831 16.280447
91.181808 117.29999 15.314004
94.249527 118.1739 16.272478
56.707298 120.26344 15.907482
58.49707 121.2322 16.421146
61.602249 121.11664 16.147692
63.375656 121.20811 16.540705
68.18718 121.2081 16.246792
70.973755 122.32505 16.74885
72.37207 122.40601 16.914173
76.350113 122.7 17.700176
80.700165 122.7 17.520172
81.883514 122.44172 17.125172
85.508476 121.5014 16.472641
88.19281 121.265 16.513464
92.170853 122.57208 16.385454
93.969528 121.15189 16.296322
62.700001 124.05001 15.300158
63.347664 124.64105 16.488264
68.58873 124.23872 17.109852
69.898514 123.95333 16.230619
73.329117 124.31616 16.13726
76.14386 124.20329 16.311565
79.42952 124.68802 16.430826
82.581459 123.81414 16.025164
84.929161 124.63664 16.256918
89.24453 124.85954 16.669636
90.610962 123.46072 16.066235
64.973503 126.23487 16.344749
67.253738 126.36034 16.32329
70.154434 127.52984 16.316397
73.517914 127.5919 16.192497
75.22683 127.80733 17.001389
79.600426 127.41251 16.374191
82.367729 128.45082 16.568554
85.087349 127.00623 16.174944
87.727013 126.32776 16.169235
76.454872 129.09819 16.197504
78.389221 129.08109 15.75422
81.96006 129 15.264157
100.00028 77.599998 18.000187
107.29321 76.542854 18.085897
108.63564 77.347046 18.379597
98.613152 80.506439 18.677608
99.254807 78.990906 18.354736
110.04895 78.664276 18.801617
111.92289 78.922501 18.915199
97.774841 82.525391 19.094038
113.05857 83.204659 19.294382
96.764656 85.282196 19.341974
110.25039 86.282616 19.063231
111.67931 84.834579 19.484394
50.108288 89.016655 18.358522
52.34647 88.869759 18.404839
96.244728 88.315361 19.262503
109.009 88.296547 19.448473
50.874149 90.396782 18.784061
52.708897 91.710411 19.155418
96.555695 91.479439 19.220774
107.52464 92.472862 19.08877
108.08337 90.935089 19.477852
50.749966 95.75 18.025183
52.314175 94.401146 19.195087
54.959572 94.496033 19.309481
97.634125 94.346146 19.369427
100.4238 94.876541 18.622332
103.39925 95.135849 19.240959
106.33858 94.487419 19.201754
47.857475 96.990005 18.915201
49.692513 97.546516 19.241909
52.105019 97.232376 19.752712
56.077644 97.445274 19.427231
97.596596 97.469353 20.104586
100.26137 97.140709 19.809179
102.31185 96.265396 20.273287
48.957146 101.39999 18.257328
53.835457 100.84838 20.409887
55.860806 100.31759 19.532625
57.693413 100.76559 19.529703
95.618454 101.29092 20.700211
97.265709 100.3491 20.005663
99.652443 100.21303 20.354551
49.904137 103.30939 19.307831
53.092854 103.31428 19.721626
55.635521 103.42236 19.972298
58.754196 103.47634 19.395279
60.299973 104.7 20.700212
95.280281 103.3909 20.623837
97.331314 103.29113 20.231195
99.31459 103.19286 20.66449
50.663994 105.43199 20.388206
51.719601 106.47533 19.268541
55.548138 106.3387 19.299252
58.395607 106.30969 19.33235
60.767372 106.5913 19.587156
94.461906 106.5248 20.386662
97.381401 106.38659 20.003233
99.171738 106.41428 20.631634
52.285732 109.31224 19.424694
55.652584 108.32322 19.611406
57.299984 108 19.800201
61.884579 109.35077 19.269428
63.374981 110.57501 20.450209
92.700256 108.3 20.700211
94.273087 109.32214 20.160181
97.481071 109.29422 19.967525
99.100327 108.97144 20.700207
53.123535 112.29803 19.345299
54 113.65384 18.784805
62.653828 111.54806 18.502113
64.133667 112.52486 19.481976
89.475227 113.475 20.56896
91.46479 112.77814 20.413832
94.43399 112.34024 20.252136
96.903671 111.77529 20.373232
55.317322 115.36932 19.26285
57.149994 116.7 18.150188
65.196739 115.07225 19.010532
66.71209 116.05716 19.941957
86.57164 116.57143 20.700209
88.711182 115.54779 19.668322
91.550224 115.08036 19.096621
93.840248 115.48849 20.104826
56.708328 117.325 19.933537
57.787037 118.58147 19.22426
65.312492 117.3875 18.100187
67.545685 118.1665 19.180387
70.095047 119.08802 20.223209
72.180069 119.7 20.700211
82.993919 119.44376 20.393953
85.452278 118.69708 19.990145
88.040405 118.34611 19.295647
93.948471 118.25285 19.45043
59.202129 120.3159 19.375731
61.381123 121.42357 19.197359
63.230774 121.78845 18.219416
68.381279 120.80001 18.368938
70.295898 121.15917 18.836298
73.201553 121.40745 19.528557
76.338493 121.91338 19.556858
79.696732 121.71032 19.719164
82.280579 121.1845 19.166172
84.917297 120.88046 18.592875
88.601059 121.51682 19.000999
91.470284 122.60711 19.632183
93.803459 121.24747 19.388163
62.382694 123.36922 19.915588
63.804775 124.80367 19.365459
67.877037 125.31245 19.38604
69.528038 124.47599 18.420179
73.876701 124.25109 18.418278
76.184586 123.70343 18.346739
79.301353 124.37218 18.777704
83.555733 124.31666 18.622414
85.227119 124.78114 19.275541
88.524345 124.53478 19.385
91.134178 123 19.006979
65.074135 126.16032 18.848457
66.900017 126.18155 18.912024
70.366486 126.93301 19.261446
73.169182 126.88296 19.241343
76.178589 127.75456 19.282125
79.260078 126.88829 19.161055
82.383369 127.24341 19.430952
84.360199 126.63 18.480188
87.400246 126 18.428762
113.37608 83.278374 21.600216
96.878799 85.757141 21.40736
103.86031 86.44799 22.692228
105.00034 86.699989 23.100235
110.6404 86.759995 21.060211
111.88567 85.48159 22.126621
96.326317 88.503258 22.069782
103.75505 87.509438 22.936083
105.0432 87.171425 23.271666
109.93505 88.467621 22.251377
111.00038 87.149994 23.310238
53.999947 92.699997 21.00021
96.05764 91.377495 22.24024
107.65421 92.826904 22.015602
108.54192 91.218864 22.424761
52.246506 94.908623 21.36746
55.256222 94.921883 21.567408
95.64566 94.977264 23.325237
96.340668 94.378563 21.931181
104.22031 95.584618 22.029451
106.27714 94.229614 22.399061
49.316109 98.60321 21.145378
53.093399 97.545982 21.99659
56.373974 97.49527 22.228571
57.299938 98.652618 22.705494
95.279228 97.64119 22.694338
96.202103 97.101822 21.343857
101.37756 98.009087 21.613852
102.81734 96.920723 22.620974
49.834492 100.19402 22.459715
52.729778 100.31651 21.790113
55.252094 100.5395 22.500217
58.088387 100.33353 22.311827
94.550026 100.42535 22.304132
96.696701 101.09999 23.175236
101.10217 100.42013 22.202013
102.00033 99.179993 23.700241
50.074993 103.57498 22.200222
52.736404 103.31611 22.407587
55.53017 103.3179 22.137966
58.765171 103.46253 22.31004
60.356716 104.47296 22.605633
92.529778 104.13409 23.134331
94.186432 103.31042 22.281809
97.248352 103.29285 22.820108
100.47089 103.3362 22.192879
50.315544 106.34856 22.048771
53.130299 106.69697 22.585072
54.923496 106.32944 22.410034
58.262699 106.52207 22.300226
61.256577 106.3302 22.326643
91.965759 106.48277 22.526096
94.058167 105.48421 21.931799
97.081169 105.48529 23.298761
100.04827 106.31095 22.245436
50.699997 108.37501 23.300238
51.782707 109.42117 22.255989
55.480164 108.24046 22.118402
57.29998 108 21.150213
62.526577 108.77889 22.197475
63.689621 110.1793 22.445065
89.394424 110.22693 23.048309
91.25769 109.36594 22.104485
93.675247 110.23636 23.011595
98.700325 110.7 21.00021
99.702789 109.46767 22.261293
53.036179 112.20423 22.255539
54.214291 113.50002 22.835947
65.08136 112.28136 22.234116
66.422714 113.60454 23.032049
88.56749 112.49578 22.371288
91.745659 111.95453 22.341555
93.816566 112.44698 23.043091
97.714905 112.58703 22.186722
99.092598 111.18463 22.400229
55.627335 115.16487 22.260244
57.059998 116.53999 23.060236
65.914268 114.08571 21.128784
67.443298 115.34477 22.33008
69.313072 116.5826 23.348063
83.600182 116.60001 23.600239
85.552254 115.57533 22.383778
87.480179 114.51999 21.532223
95.297333 115.58527 22.032581
96.265038 114.78234 22.417875
56.849998 117.33 21.180216
58.058132 118.53693 22.455887
60 119.7 23.700243
68.522758 117.17728 21.382036
70.458321 117.87595 22.198626
73.196426 118.95998 22.480213
76.149033 119.34579 23.026825
79.646721 119.14124 22.793369
82.373199 118.2489 22.264399
84.488426 117.34706 21.411985
95.076492 118.45741 22.201927
59.439125 120.16306 21.880659
61.166115 121.40804 22.435705
74.025093 120.23439 21.253345
76.531685 120.39154 21.597065
79.011749 120.45692 21.544401
89.640251 122.63998 21.340214
91.454636 122.31403 22.287951
93.717865 120.82298 22.354279
62.39999 123.4147 22.182587
64.226974 124.65334 22.404129
67.26223 125.46457 22.486879
69.489479 125.63682 23.510769
77.375076 125.64999 23.600237
79.373192 125.38851 23.30793
82.334923 125.61369 22.652773
85.527473 125.0295 22.120684
88.289696 123.82281 22.316017
90.000252 123 23.357382
68.700005 126 21.807919
70.524834 126.20292 22.267906
73.310631 126.67441 22.47257
76.286835 126.54335 22.258698
79.327019 126.29416 21.871378
81.958679 126.13901 21.329481
110.21576 89.007683 24.400244
111.10041 87.366661 24.06691
95.700233 92.242851 24.47168
96.000244 91.30909 24.082062
107.70037 92.999992 24.300245
108.8706 91.614891 24.989637
95.185616 94.606041 25.032171
104.70034 95.849998 24.350245
106.51101 94.54847 25.277523
108.07538 93.125 26.225266
55.799953 98.399994 24.000244
57.29995 98.550003 24.075245
94.433533 97.44117 25.312033
103.59932 97.480202 25.277912
105.20657 96.187515 26.025265
49.236336 101.10908 24.26388
55.702896 100.6853 24.512024
58.473381 100.64052 24.645817
92.700226 101.575 26.275269
94.095695 100.55783 25.322744
97.405281 100.59649 25.310308
100.69566 101.34417 25.067692
102.26226 100.05475 25.566929
50.20356 102.76786 24.882401
51.854996 104.06104 25.08926
56.684967 102.8325 25.106512
58.704113 103.48401 25.228662
60.494942 104.33001 25.505262
92.14901 103.44002 25.421509
94.703537 103.26643 25.325092
98.510254 103.56332 24.756918
100.55759 103.31303 25.47513
102.00034 102.36667 26.333597
53.327324 105.94281 25.274782
55.652855 107.10762 25.295818
57.996498 106.0804 25.141502
61.556675 106.38844 25.363068
90.823486 106.30989 25.283987
95.400276 105.1846 25.361799
97.466682 105.90733 25.358299
100.6358 106.31874 25.402344
50.647823 108.90001 24.600252
51.510639 110.11915 25.216206
54.599983 107.99999 24.000242
59.87645 110.11765 26.612036
62.163506 108.83292 25.528496
63.856766 109.78562 25.437851
89.210121 109.69469 25.475058
91.345284 109.56145 25.14616
93.971664 110.1452 25.619322
98.600288 110.49165 25.76693
99.565826 109.13957 25.262857
52.976612 111.80321 25.316395
54.499996 113.25519 25.4175
60.299976 111.00001 26.700274
65.25985 111.96786 25.30537
66.706848 113.34247 25.611227
86.273262 113.3077 25.719496
87.701607 111.97392 25.185472
92.089546 111.99 25.273104
94.320023 112.38991 25.160334
97.423004 112.39948 25.30542
56.064568 114.75587 25.268759
57.281563 116.24308 25.463333
67.97908 114.6767 25.190964
70.110931 116.00727 25.55662
72.847122 116.59409 26.453205
79.730377 116.56744 26.463058
82.571968 116.01717 25.616217
84.934784 114.75 25.131035
95.350296 115.80527 25.526583
96.128868 114.41631 24.955353
58.644966 118.17138 25.272741
60.326336 119.49475 25.605528
71.230827 117.17692 24.469479
73.47953 117.56715 25.095463
76.353531 117.88982 25.35367
79.290138 117.7275 25.03339
81.704506 117.2348 24.417645
86.300209 117.5 26.700274
94.421196 118.3978 25.39147
61.8503 121.03697 25.208914
63.343639 122.37819 26.051178
80.400162 122.69999 26.700266
83.040184 122.60396 26.556263
85.439316 122.36089 26.265472
88.492767 122.04547 26.008509
91.414787 121.66344 25.363747
93.493866 120.53222 25.019606
62.700001 123.00001 24.000252
64.516075 123.66426 25.139555
67.371445 124.08129 25.376635
70.35215 124.42969 25.358162
73.370247 124.5489 25.579475
76.418373 124.55656 25.308638
79.2957 123.85645 25.277369
82.284721 123.9779 25.183691
85.243782 123.76926 25.013073
88.143982 123.41248 24.63463
90.000267 123 24.00025
71.700005 126.00001 24.000246
73.603455 126.05173 24.114035
75.38002 126.10001 24.100245
106.52469 95.140526 27.251625
93.814552 97.93927 27.278849
104.30318 98.16761 27.769293
105.33431 96.832085 27.764435
92.415474 101.25253 28.169775
94.459404 100.5816 27.972294
97.664352 100.15852 28.022938
99.079216 101.36839 28.1766
103.09145 100.28548 28.32935
58.079964 104.27999 27.060272
60.685677 104.35713 27.193132
91.414474 103.40179 28.368155
94.582146 103.55901 28.498648
99.751152 103.58664 28.298155
102.15035 102.93672 28.432953
53.637482 106.0875 27.287771
55.631554 106.40526 27.458166
58.297642 106.60464 27.935173
62.097282 106.61079 27.830011
63.299957 107.7 29.220295
89.477623 107.15807 28.930937
90.354515 105.94913 28.112352
95.281502 105.10624 28.644041
97.264236 105.9443 28.331436
100.59003 106.12885 28.388954
50.999992 109.8 27.900284
51.545837 110.28336 28.279453
59.141552 109.41384 28.375694
61.032848 109.45287 28.346006
64.396484 109.45498 28.440306
86.700195 110.7 29.700304
88.509186 109.41299 28.432768
92.030807 109.79505 28.378813
94.538322 109.14297 28.287165
97.927811 110.30998 28.414036
99.545372 108.82 28.345287
52.976925 111.59998 28.279755
54.591087 113.11486 28.348804
59.999977 111 28.473017
60.449966 111.01364 28.459379
65.644043 111.42203 27.773155
67.41362 112.52122 28.439695
69.617332 113.46922 29.221453
82.778435 113.44348 29.230738
85.443031 112.47571 28.46172
87.450195 111.42095 27.730925
91.976578 111.98013 28.296492
94.491043 112.23689 28.335676
97.256927 112.41425 28.327141
56.160557 114.69081 28.30213
57.4244 116.16949 28.427118
68.485733 114.10714 27.214565
70.52198 114.74084 28.064919
73.338982 115.49369 28.351866
76.389687 115.76212 28.348658
79.365471 115.27039 28.354885
82.162674 114.67083 27.919035
84.27018 114.12001 27.270279
94.857994 115.68846 28.384916
96.097343 114.17648 28.456179
58.885086 117.76117 28.287588
60.792854 119.21516 28.446726
86.240211 117.52 27.160276
88.691154 119.75454 29.482115
91.906136 119.20592 29.006191
93.41275 118.01482 28.054985
62.25367 120.35487 28.108829
64.248489 121.6833 28.323015
67.360725 122.24785 28.523872
70.2827 122.30077 28.46723
73.295235 122.44621 28.670483
76.393166 122.60144 29.038649
79.404015 122.4399 28.448742
82.345657 121.94542 28.309376
85.408035 121.2054 28.285217
88.247894 120.51856 28.194345
91.106705 120.32744 27.848003
93.000282 120 27.000277
65.519997 123 27.000278
66.728577 123.05715 27.114567
70.863213 123 27.110802
73.615952 123.09546 27.286644
76.287361 123.20503 27.558523
78.1287 123 27.128849
99.000305 101.69999 30.000305
103.16285 101.26874 30.094051
90.46386 104.1 30.191217
93.628387 103.79063 30.206558
98.70031 103.9 30.70031
99.480324 103.90363 30.529394
102.24407 103.33592 30.651859
88.88681 106.74126 30.788969
90.030228 105.17999 30.180307
94.58477 106.31194 31.221428
97.251884 106.1875 31.211241
100.93636 106.454 31.272314
59.15292 110.41764 30.176775
61.366634 110.24442 30.233635
65.3769 109.69232 30.25415
66.634605 110.56152 30.681084
83.485886 110.6357 32.486046
85.63205 109.972 31.555729
87.606003 108.79513 30.827492
92.185402 109.52324 31.469349
94.345573 109.30386 31.411253
97.58696 109.67668 31.760326
99.515327 108.86499 31.337822
53.279999 111.70498 30.150311
54.804768 113.11905 30.614592
59.957123 111 30.25745
61.931572 111.89469 31.058205
63.509972 112.52999 31.75532
67.897583 111.48793 30.68343
70.389954 112.6207 31.051195
73.286736 113.0511 31.700325
76.418488 112.82655 31.875864
79.392281 112.7596 31.554274
82.30941 112.15488 31.258556
84.729927 111.40945 30.563829
92.415268 111.24001 30.285309
94.231026 111.29734 31.10545
97.30143 112.45103 31.362926
56.261841 114.60789 30.939777
57.622002 116.08624 31.437004
71.60006 113.99999 30.000305
73.683678 114.76118 30.900303
76.373787 115.26766 31.475513
79.228432 115.55948 31.882412
81.000153 115.64999 32.700333
94.588829 115.56391 31.439655
96.114075 114.1345 31.096867
59.108738 117.53008 31.243998
61.252087 118.99043 31.453613
63.099995 119.7 32.500332
68.13916 117.43044 32.491634
74.550095 117.00001 32.70034
76.638573 117.18463 32.584949
78.928696 117.25716 32.464615
86.56176 119.72306 32.123398
88.448433 119.39143 31.418316
91.441811 118.3923 31.332607
93.115662 117.17693 31.084932
62.575001 120 30.42531
64.373283 120.56831 31.252493
67.283569 121.20219 31.401733
70.360306 121.66482 31.372066
73.36718 121.77702 31.275887
76.280159 122.11372 31.305668
79.488068 121.92292 31.059309
82.31572 121.08454 31.344233
85.281197 120.42256 31.230953
87.100235 120 30.266972
100.10032 107.5 33.000336
91.66555 110.33876 33.343201
95.078339 110.20245 33.380825
97.778877 109.83214 33.503914
99.310654 108.73448 33.238274
79.821571 111.53571 33.00034
82.791077 112.68182 33.627613
84.665062 113.27027 33.827362
91.46389 111.16365 33.718529
94.56028 112.31078 34.089588
96.878441 112.33356 33.957279
58.338459 116.46922 33.138798
67.671455 116.39291 33.72176
70.914047 115.98602 33.978352
73.660057 116.00005 34.060349
76.235199 115.11385 33.686512
79.675522 115.30992 33.96373
82.002029 115.2309 34.27306
84.300209 114.37106 34.500355
92.344048 116.46252 34.975353
94.173141 115.2 34.263695
59.388466 117.30002 33.334961
61.505505 118.58806 33.746185
63.710304 119.5368 34.332695
67.735733 117.51425 33.851357
70.558113 117.23228 34.268093
73.549187 117.22363 34.047619
76.534187 117.82058 34.407898
79.087997 117.85152 34.583714
81.200165 117.10001 34.100346
86.025215 119.625 33.150337
88.825249 118.76665 33.358677
91.274071 117.57142 33.940815
65.020584 120.10586 34.019466
67.381302 120.61936 34.355766
70.339699 121.21384 34.346924
73.266068 121.35967 34.227867
75.745728 121.68859 33.531769
82.581993 120.46365 33.136703
84.525208 120 33.075336
91.98027 116.23001 36.260368
93.616959 115.01667 36.083698
77.172127 119.14799 36.264366
79.469627 118.6729 36.254612
81.120163 117.59999 36.180367
67.550018 120.53333 36.117031
70.366684 120.87496 36.342037
72.465012 121.15498 36.345367
0 0 0 1 0 0 0 1 0 0 0 1 0 0 0 0 0 966 1 0 0
