ply
format ascii 1.0
comment PCL generated
element vertex 871
property float x
property float y
property float z
element camera 1
property float view_px
property float view_py
property float view_pz
property float x_axisx
property float x_axisy
property float x_axisz
property float y_axisx
property float y_axisy
property float y_axisz
property float z_axisx
property float z_axisy
property float z_axisz
property float focal
property float scalex
property float scaley
property float centerx
property float centery
property int viewportx
property int viewporty
property float k1
property float k2
end_header
37.967571 5.1881995 -21.507769
39.164925 4.8877568 -21.34326
35.174873 8.5239534 -21.252562
36.484497 6.9277053 -21.33392
32.072659 10.291662 -21.168556
33.975761 9.4671373 -21.247025
28.338617 13.5791 -21.083836
30.021246 12.063808 -21.118868
14.037801 -13.409688 -18.440784
22.689592 -12.394017 -18.324718
20.194073 -10.096353 -19.338501
21.701159 -11.184288 -18.456537
17.42227 -6.4548054 -20.002769
18.892698 -7.9146609 -18.941772
-22.001154 -4.3869004 -18.397141
-20.775007 -3.2961633 -18.439945
16.357269 -4.7327547 -19.767096
-19.53706 -1.8682386 -18.453808
-17.967335 -0.046232224 -18.243889
14.326782 -1.1385437 -19.162884
16.744034 -0.87633193 -18.578302
-18.219631 2.8974495 -18.012035
-16.517956 1.9834327 -18.329191
11.89181 2.6819525 -19.48324
13.669163 1.5615636 -18.923212
16.256098 1.2934859 -19.08655
-22.199389 3.7897623 -18.240446
-19.898172 4.6686926 -18.191492
-16.41103 4.6632137 -18.223684
10.967758 4.4069872 -19.027599
13.756536 4.7265959 -19.221378
15.682006 4.4033179 -19.560797
35.263962 5.5550246 -18.438871
37.425552 5.6280861 -18.518534
39.450825 5.7836995 -20.837332
-22.994843 7.3632531 -18.193901
-18.590185 7.0658083 -18.285984
-16.376886 7.1633873 -18.396555
-14.796718 8.163311 -18.745966
8.0469627 7.8591671 -18.925827
11.212811 7.8601193 -18.586781
13.469497 7.5499935 -19.053331
15.2472 6.7364292 -18.967642
29.588938 8.5722609 -18.2206
31.564535 8.2484751 -18.955299
34.88126 7.8206077 -20.102324
37.703556 7.2361698 -19.770937
39.661457 7.1225734 -19.331263
-22.458609 10.037298 -18.20418
-18.269022 10.499762 -18.489601
-17.142988 10.620139 -18.461843
-14.561663 10.816943 -18.489491
5.4230342 11.577085 -18.871288
6.6157231 9.8687925 -19.026503
10.702028 10.185925 -18.165968
13.384604 9.6895285 -18.337309
26.38962 11.259243 -18.246353
28.71969 10.828706 -19.351725
31.185965 10.154904 -20.401331
33.795982 9.1671429 -20.864672
-21.538008 12.669923 -18.157589
-20.677876 14.40017 -18.207798
-15.468297 13.018616 -18.557905
-13.762629 13.476677 -18.227608
2.2310107 14.715423 -18.686024
3.8096936 13.463756 -18.857302
10.336554 13.367101 -18.069407
23.979511 14.43903 -18.179247
25.85384 13.601763 -19.315678
27.91783 12.671288 -20.188854
-19.353064 16.53352 -18.173803
-13.478017 16.149733 -18.332851
-10.200397 16.826477 -18.442715
-8.8114443 17.818304 -18.480047
-1.3682482 17.107311 -18.646376
1.1067891 15.919052 -18.826506
23.003168 16.984442 -19.137758
24.72151 15.848993 -20.031151
-18.189791 18.553438 -18.209585
-16.555096 19.455973 -18.250486
-13.781152 18.799622 -18.22311
-8.3019428 18.324312 -18.43718
-3.8912201 18.074602 -19.163149
20.807777 20.698639 -18.451414
21.513821 19.88938 -19.478312
20.177547 22.935669 -18.581776
22.25461 22.340303 -19.732113
24.617239 23.641865 -20.20499
17.324688 26.171024 -18.50362
19.493689 25.467163 -19.084255
22.592506 25.878569 -19.706516
24.74148 24.969498 -20.028601
14.891011 29.705933 -18.215908
16.251286 28.69668 -18.804802
19.612421 28.639208 -19.458639
21.761786 27.658756 -19.620195
13.911369 31.140285 -18.770992
16.399286 30.820141 -19.513618
18.108727 30.065414 -19.5352
-19.3041 35.764484 -18.002733
-15.348396 35.367771 -18.103954
-14.324428 35.824139 -18.115557
8.3011818 35.743542 -19.010641
10.06971 35.6147 -18.806381
17.017063 35.732262 -18.872427
-12.918205 36.430428 -18.185083
-10.561436 37.203663 -18.253347
-7.3232741 37.87392 -18.337887
-4.3584237 38.046524 -18.400579
-1.3340721 37.828045 -18.468012
1.7184249 37.475285 -18.557285
4.435225 36.858162 -18.687487
7.0261798 36.26305 -18.636707
10.466131 37.86388 -18.784227
17.138056 37.594158 -18.988552
11.387792 39.517334 -18.690189
13.373022 40.382069 -18.780754
15.950336 39.717419 -18.958466
8.1752157 -13.666368 -16.265045
10.430162 -13.550694 -16.431225
13.591062 -13.69903 -16.212742
16.279007 -13.699243 -16.34609
18.570927 -13.573506 -16.543106
23.443295 -12.477594 -17.286854
25.276064 -12.348613 -15.653404
27.183378 -12.285949 -15.101334
-25.714539 -9.0484438 -15.054801
20.684753 -9.2065258 -16.617899
22.335413 -10.611466 -16.765457
24.559111 -11.702653 -15.367087
-37.420662 -7.7014036 -15.557651
-25.122004 -7.9866838 -16.269354
-23.3501 -6.5873241 -16.411589
17.806162 -6.1752214 -16.994104
19.27363 -7.2074676 -15.882039
-38.556206 -4.8440447 -15.31667
-22.003525 -4.2998781 -15.897711
-20.418804 -3.6648245 -15.841548
17.176582 -4.265564 -16.477915
18.948547 -4.6262965 -16.064451
-39.076588 -1.2469828 -15.208169
-22.697206 -1.5324619 -15.766632
-19.200588 -1.5872211 -16.677368
-17.729166 -0.45588073 -17.171827
14.741411 -0.38267702 -17.46534
16.47513 -1.7278897 -16.93697
18.392225 -1.8544604 -17.031118
-39.701572 2.6665075 -16.08091
-38.968491 2.1337526 -16.888144
-22.830124 1.550604 -16.714937
-18.93655 1.4426085 -17.441336
-17.238739 1.4510094 -17.648664
13.681677 1.3374355 -17.539425
17.36091 1.398335 -17.259171
18.145647 0.73060954 -15.80127
35.667713 2.9533753 -15.066027
37.028732 2.7699158 -15.215817
-39.564575 4.4760437 -16.31777
-38.831791 5.5376759 -17.301653
-24.02804 5.8060608 -15.730919
-23.585688 4.3449883 -16.818377
-19.359077 4.3636994 -17.87364
-16.164808 4.1822791 -17.938837
11.368788 4.8337336 -16.448338
12.383078 3.9290695 -17.216244
16.749414 4.6888943 -16.339138
26.664495 5.6548681 -15.232248
28.656958 4.8435836 -15.51733
31.577986 4.6320534 -15.894134
35.053776 4.1088638 -16.5266
37.359924 4.126225 -16.687044
39.586197 4.6486435 -16.057442
-39.498627 7.9214067 -15.724084
-37.917431 7.7649693 -16.221155
-34.783154 8.6154356 -15.993363
-24.108973 7.211904 -15.668403
-23.615002 7.3459101 -16.928537
-18.507099 6.0797906 -17.994747
8.3798695 7.9615459 -17.114721
10.19795 7.247766 -15.989532
14.872145 8.483819 -17.398222
15.605463 7.7247729 -16.687523
26.106157 7.5000863 -15.820691
28.73827 7.3521485 -17.053614
31.059519 6.8623271 -17.467871
38.8181 6.0239191 -17.944738
39.749405 6.5814419 -17.601469
-37.742371 9.5540504 -16.936905
-34.620502 9.240613 -17.085587
-31.882215 10.566234 -16.048418
-22.953316 10.34409 -16.236963
5.2081594 11.620942 -16.525414
7.5878444 10.222948 -16.009975
9.9964123 10.533453 -16.695648
13.380251 11.058557 -17.403231
15.293941 9.3335991 -15.840066
23.691708 11.181822 -15.618113
25.391014 10.515997 -17.009724
27.248346 9.5560207 -17.742605
-30.733919 13.229492 -16.83914
-29.7701 13.808029 -15.453115
-21.695833 13.089449 -16.270334
-20.761198 14.61152 -16.951641
-13.606451 13.626285 -17.995405
2.1958592 14.26703 -16.384026
3.6568472 12.917158 -16.622494
8.6813288 13.612586 -15.516522
10.596495 13.546959 -17.297522
12.699348 12.953297 -16.71838
23.096561 13.596407 -16.358404
24.499838 12.729403 -17.60684
-30.238295 15.819238 -17.608578
-29.426579 16.5413 -16.247267
-19.684374 16.665476 -16.896706
-12.466936 16.107073 -17.703758
-10.440837 16.802813 -17.041407
-7.785049 17.451534 -15.859637
-4.6683335 17.064005 -16.065098
-1.1355231 16.764486 -16.23913
0.5228402 15.653784 -16.597807
8.4712896 16.601475 -16.010387
10.418983 16.333773 -16.443586
21.891329 16.586428 -16.531382
-28.545971 19.672146 -16.162025
-18.485834 18.74472 -16.872253
-16.86433 20.338018 -17.122545
-13.013207 20.073906 -17.861956
-10.417531 19.389154 -17.424204
-7.38199 19.856176 -16.044226
-5.9654522 19.530468 -15.099113
-0.073501587 20.984236 -15.131016
1.7340349 20.590008 -15.184054
3.8702717 20.838722 -15.096548
8.2351313 18.895657 -15.877643
9.5072441 19.063988 -15.903889
20.660849 20.27133 -16.594278
21.22764 18.605629 -16.877834
-27.606251 22.243443 -16.805758
-26.70896 23.689005 -16.421316
-15.933782 21.75305 -15.973
-13.418188 22.689644 -16.648947
-10.581919 22.577276 -17.346706
-7.4211717 22.202856 -16.615923
-4.6762919 22.721664 -15.601202
-1.2770517 22.343872 -15.854264
1.3693961 22.35112 -15.693791
4.1837173 22.540413 -15.313508
19.711685 22.544607 -16.750849
-25.485628 25.940413 -16.967255
-12.367345 24.254982 -15.789851
-10.725471 25.231531 -15.915265
-7.6800008 25.266672 -16.251768
-4.4736624 25.377268 -15.968109
-1.3452942 25.248686 -15.791209
1.1617607 24.917162 -15.477908
3.9439535 24.372766 -15.168044
17.152428 25.642504 -16.975451
18.354788 24.236883 -16.895239
-25.03607 28.327187 -16.949028
-23.509768 28.971352 -15.866215
-7.6859107 27.027313 -15.10184
-4.6129804 27.2115 -15.212089
-2.5209928 27.282764 -15.096315
14.714859 29.628944 -16.612556
15.634013 28.076952 -16.78816
-24.156126 30.210836 -16.227919
-22.678514 31.310629 -16.186413
-20.94088 32.388855 -17.129934
11.71051 32.461952 -16.258545
13.358617 30.971685 -16.407597
-21.063335 34.60218 -15.74188
-19.371561 35.124371 -16.366549
-16.644823 35.526844 -16.003347
-14.639718 35.868664 -17.423168
2.7455704 35.962353 -15.412324
3.571758 35.94841 -15.295845
8.2200251 35.766666 -16.085556
9.809845 34.915379 -16.996014
16.781612 35.38818 -17.188013
-21.354759 37.409035 -16.665062
-19.786966 36.868462 -17.112595
-17.334631 37.070656 -16.477703
-13.373874 36.681011 -16.490597
-10.586428 37.602966 -16.605076
-7.4752464 38.290741 -16.42922
-4.41576 38.447758 -16.46718
-1.3836273 37.872181 -15.71168
1.4631807 37.249191 -15.854978
4.3060627 37.175648 -15.617957
7.4148154 36.853397 -16.060139
10.233381 37.430229 -17.346193
17.095886 37.736458 -17.265043
-22.605103 39.337532 -17.245352
-19.588469 39.298054 -16.780506
11.346388 39.527699 -17.273096
13.433313 40.434494 -17.222692
15.915401 39.761066 -17.293247
11.613575 -13.622139 -12.531178
13.61528 -13.68466 -13.342829
16.438852 -13.668756 -13.25201
18.658966 -13.643651 -13.231879
26.246634 -12.145571 -13.672312
27.855597 -12.344707 -12.90376
-36.721432 -9.5903692 -13.403647
-27.126083 -11.118734 -12.408956
-25.72591 -9.8861904 -13.311922
-23.981434 -9.07232 -12.138165
20.806242 -9.2867088 -14.043111
21.968306 -10.05447 -13.151302
24.935701 -11.770275 -13.798744
29.333704 -11.772215 -12.275029
-37.750164 -7.7140031 -13.597668
-24.466698 -7.0164213 -12.938158
-22.855774 -7.2283983 -13.205218
20.290361 -7.8944726 -14.412534
21.448072 -7.9778752 -13.063587
37.560345 -6.9185452 -12.041401
-39.199902 -3.4870479 -13.445214
-38.517277 -4.7189784 -13.367367
-24.233599 -4.6561007 -13.262997
-22.555059 -4.7638545 -14.486814
-20.936491 -4.4991202 -14.876561
20.24626 -4.5135622 -13.383961
21.204201 -5.5978613 -12.236029
-39.360226 -1.3458828 -13.26295
-38.897102 -2.6851993 -12.349271
-24.040543 -2.7349935 -12.331511
-23.814487 -1.7934433 -13.756248
19.523823 -1.4017218 -13.190777
28.12611 -0.29595867 -12.162563
30.14015 -0.26092434 -12.053927
-39.589245 1.6357878 -13.021453
-38.369518 2.6679194 -12.319782
-23.574966 1.5832913 -13.389611
17.865797 2.4413996 -14.958152
18.950178 1.583582 -13.163741
26.199541 1.925089 -12.516724
28.552019 1.2832958 -13.309077
31.449957 1.788385 -13.439595
34.631329 1.8133417 -13.122074
37.543079 1.8744693 -13.523592
39.633533 2.5646741 -13.651803
-39.500385 4.2528815 -13.830426
-37.569664 4.6860337 -13.405302
-35.977768 5.864356 -12.06643
-24.086554 5.7195053 -13.542361
-23.727528 4.2244873 -13.739011
17.556091 4.7066364 -14.199094
18.705814 4.2995205 -12.835085
23.868406 5.8735614 -12.285974
25.505112 4.536468 -13.456245
27.969011 3.693083 -14.588095
31.521189 3.2576718 -14.778151
33.772015 3.1651361 -14.705422
39.673908 3.2414079 -14.608559
-39.603539 7.1447191 -14.610951
-37.317959 6.475853 -14.624908
-34.681854 7.7326317 -13.695452
-32.961433 8.9588881 -14.178465
-24.551325 7.7163706 -13.508905
17.213411 7.583591 -13.639606
18.479111 7.4299979 -12.423588
23.471636 7.5261908 -12.558866
24.671209 6.8219352 -13.731235
-33.195755 9.1226044 -12.980346
-31.475739 10.217372 -13.524791
-29.678852 11.668842 -12.963277
-24.824114 10.079045 -12.984415
-23.686287 11.018519 -14.039564
5.0425997 11.811737 -13.95846
7.7100453 11.358704 -13.919459
9.0813875 11.111156 -14.797352
14.711054 11.406085 -14.531042
16.656225 10.66855 -12.933792
19.104582 10.438156 -12.192738
22.366598 10.317949 -13.139429
24.046904 9.4805956 -14.876052
-28.430683 13.228894 -13.03754
-24.381454 12.207627 -12.279112
-22.8552 13.566228 -13.3374
-0.15208255 14.921895 -12.502324
1.6251519 13.912437 -13.425887
4.1205344 13.228795 -13.021819
7.438941 13.620334 -13.117845
13.914309 13.606759 -13.341455
15.877102 12.573152 -12.376721
20.642725 13.531815 -12.455918
21.658043 13.287994 -13.666893
-28.006744 16.447882 -13.185341
-21.977182 15.983798 -12.659138
-20.295992 17.018175 -13.842684
-6.4828825 17.309292 -14.732422
-4.5116024 17.239065 -13.250644
-1.2730621 16.587128 -13.278035
1.4987868 16.660858 -13.137564
4.4918427 16.563467 -12.885326
6.9618497 16.335356 -13.229402
11.123121 17.039125 -13.830073
12.469167 15.481818 -12.954691
20.695601 16.657003 -12.736753
21.269608 16.155281 -14.19249
-27.929747 19.593956 -13.309781
-19.123753 19.4041 -13.301954
-17.714296 20.680904 -14.138194
-4.4741979 19.518642 -14.066406
-1.5442806 19.560013 -13.995302
1.5289327 19.17021 -14.289804
4.5474849 19.431793 -14.390834
7.3303995 19.603468 -14.187108
9.9089432 19.374281 -13.375812
20.810274 19.594292 -13.214303
21.033939 20.158468 -12.667823
-27.40951 22.020714 -13.276497
-26.671253 23.412218 -13.155249
-18.264973 21.378382 -12.295413
-16.276981 22.638643 -13.297388
-14.510284 23.786306 -14.541119
-4.8756762 21.468426 -14.800728
-1.8763357 21.298672 -14.878258
5.7175961 22.973946 -14.869037
7.4574685 22.131847 -13.660388
20.317747 22.610722 -13.374759
21.016006 21.3111 -12.564743
-25.212566 25.37034 -13.729101
-15.28717 24.165239 -12.884915
-13.597129 25.122091 -13.248017
-11.201866 26.578379 -14.358788
-0.45584902 26.820974 -14.891326
1.9265722 26.637325 -14.63126
4.6781774 25.648733 -14.074323
6.4734774 24.651237 -13.028766
17.3046 26.360821 -13.583331
19.019939 24.765125 -13.035313
-23.191015 28.586212 -13.701425
-12.027281 27.006657 -12.609224
-10.532646 27.517712 -13.496478
-7.1933975 28.394077 -13.650559
-4.7905874 28.70405 -13.718534
-1.6227846 28.620525 -13.670746
1.4690392 28.112099 -13.35544
3.6179528 27.359777 -13.006771
14.855955 29.876234 -14.604657
15.960854 28.628119 -13.255392
-21.824978 31.576571 -13.989035
-20.93248 32.919575 -13.662736
11.774976 32.88039 -13.906418
13.429573 31.246902 -13.605014
15.055611 30.074142 -12.378772
-21.304808 33.327499 -14.702155
-19.406757 34.422516 -13.867741
-16.833261 35.493156 -13.135
-14.806155 35.897438 -12.064089
2.9624548 35.995918 -14.991789
4.8518252 35.952854 -14.726255
7.7497125 35.912376 -14.270387
10.389951 34.795109 -13.50764
-16.005442 36.59166 -13.42005
-13.565789 37.42205 -12.617596
-10.526042 37.728554 -13.058504
-7.557961 37.561771 -13.836375
-4.5567942 37.321854 -14.111169
-1.7303632 36.93317 -14.122108
1.6739697 36.629276 -13.937828
4.9036083 37.047138 -14.223976
7.0655985 36.400703 -13.93873
-6.5818706 39.186234 -14.074742
-4.91679 39.129932 -14.465312
-36.26268 -12.669609 -9.5757942
-34.678101 -13.164971 -9.62255
-32.98037 -14.061816 -9.0094786
-28.119272 -12.710423 -10.129496
-26.496574 -12.253746 -9.6793327
26.619892 -12.032618 -10.346338
27.96389 -12.134381 -10.365219
-36.682819 -10.6009 -10.654906
-35.928139 -11.615843 -9.0825653
-27.277725 -11.680706 -11.596749
-25.200768 -10.272125 -10.095972
-23.604298 -9.753356 -10.113151
23.248159 -10.813318 -10.9214
24.953232 -11.439737 -9.9173536
28.910355 -11.768247 -10.103312
31.452507 -10.692517 -10.370993
33.390495 -9.486268 -10.183353
-37.69241 -7.5778942 -10.935696
-25.143009 -7.8281498 -10.730808
-23.489805 -8.5673437 -11.559587
23.112934 -7.222333 -10.692738
24.455833 -7.3212657 -9.3661757
34.856548 -7.9642081 -9.9765053
37.223087 -6.4185658 -10.894719
-39.366013 -4.1181607 -9.4919119
-38.49139 -5.3184595 -11.054272
-24.930176 -4.620697 -10.724126
20.869307 -3.4555488 -11.878758
22.632685 -4.5474582 -10.879884
25.732561 -4.4020658 -9.8929195
27.900608 -3.868948 -9.8134346
30.914169 -3.5861218 -9.3772602
38.001701 -4.7725682 -10.14292
-39.343063 -1.2214824 -10.38421
-38.067482 -1.0559859 -10.140026
-24.468246 -1.7235645 -10.281252
-23.880634 -0.91580045 -11.378591
20.691633 -1.380075 -11.749764
22.589701 -1.6254832 -10.737576
25.610867 -1.3948098 -10.869126
28.507957 -1.791522 -11.067857
31.377436 -1.5757775 -10.682807
34.390076 -0.75991565 -10.129987
36.324287 -0.23320007 -9.5397625
-39.502361 0.8794089 -11.2908
-37.430538 1.4325308 -10.706325
-24.136364 1.5961708 -9.4320917
-23.65309 1.5623609 -10.888607
20.407953 1.5206085 -11.624901
22.911095 1.7733217 -10.808361
24.838188 1.3237793 -11.19208
32.59676 0.25821933 -11.731161
34.634174 0.51988339 -11.464643
38.007492 1.1935856 -10.378044
39.539684 1.6335076 -11.089457
-36.377453 3.9561713 -10.724836
-35.768044 5.1554542 -10.386471
-24.395115 4.835238 -9.4543533
-23.759962 4.2017298 -10.94427
20.200377 4.7546363 -11.613109
22.86034 4.4930887 -10.998907
24.204418 3.6926036 -11.646853
-34.532791 7.471591 -10.838529
-24.93218 7.6197753 -10.215858
20.137308 7.4907203 -11.484956
22.424145 7.2618537 -11.284232
-33.085773 9.0931263 -10.595546
-31.207859 10.105988 -10.565357
-28.733837 10.895703 -10.025108
-26.012331 10.383387 -10.840642
17.782688 11.491802 -11.908961
19.895262 10.783811 -11.417781
21.432983 9.8171425 -11.459544
-27.899166 13.154629 -11.372787
-25.740929 13.580178 -11.079957
-23.613419 14.587236 -11.721822
1.659152 13.931414 -11.521841
4.3828769 12.795627 -11.72846
6.3965664 12.939905 -11.90524
14.524136 14.488347 -11.606598
16.717194 13.830545 -11.076642
19.543167 13.403742 -11.032035
-27.077188 15.704692 -11.729821
-25.71361 16.382025 -10.628869
-22.952686 16.75869 -11.074791
-0.48861599 16.026911 -11.756804
0.43582559 15.413908 -11.610329
11.661218 17.528406 -10.697682
13.333472 16.12575 -10.414251
16.305004 15.451712 -9.7099886
19.325283 16.437681 -10.080015
-27.217669 19.355383 -11.689682
-25.707441 19.468239 -9.9742041
-22.173649 19.532335 -9.9935474
-20.308218 20.399231 -11.061318
10.425584 19.394951 -10.406003
20.359484 19.565031 -10.190783
21.035557 20.726316 -11.361626
-27.11512 21.411604 -11.761093
-25.390379 22.548864 -10.156507
-22.142199 22.21139 -9.3526917
-19.614162 22.232613 -10.228608
-16.970327 23.412722 -11.072987
8.3211422 22.545071 -10.349994
9.2682199 21.239922 -10.014097
20.354542 22.658455 -10.494614
21.061016 21.460163 -11.322069
-24.630529 25.000355 -11.247572
-23.364454 25.574997 -9.8179216
-15.877147 24.456654 -10.067164
-13.792583 26.024252 -10.661762
5.6089029 26.61998 -10.728111
7.0502238 25.075787 -10.125415
17.783033 26.732355 -10.514219
18.916853 25.006052 -10.399263
-22.993786 28.591196 -10.352532
-12.631184 27.418999 -10.049895
-10.441497 28.701864 -10.367752
-7.4857926 29.5453 -10.454403
-4.6602588 29.932051 -11.729654
-1.1235824 29.830339 -11.62569
1.8492554 29.325748 -10.711463
4.3093781 28.020733 -10.064854
16.385933 28.641941 -10.266806
-21.868164 31.634871 -10.281682
-20.946123 32.89658 -9.1080704
-6.0975823 30.088135 -10.152493
-4.6429324 30.241787 -10.49286
-1.45503 30.358461 -10.025085
0.39888892 30.203346 -9.7365055
11.972251 32.979496 -10.120374
13.422611 31.290648 -10.216345
15.113495 30.070749 -10.386373
-21.065561 33.027145 -10.726292
-19.614639 34.103031 -10.166195
-16.371309 35.428421 -10.687362
-14.819554 35.882698 -11.786943
8.9695854 35.803375 -9.2014933
10.462397 34.893974 -10.149182
-15.032011 36.028217 -9.8099556
-13.508312 36.491985 -11.230523
-10.48686 37.105255 -10.963829
-7.5134344 37.415619 -10.368347
-4.6386766 37.627323 -10.501004
-1.5989578 37.984947 -10.431059
1.6237035 37.572464 -10.426962
4.6053662 36.79026 -10.387131
7.4862757 36.342319 -10.357756
9.0954485 36.034519 -10.467512
-34.085526 -13.043764 -8.0759649
-31.503298 -14.122499 -7.2274437
-28.270739 -14.068918 -7.2105122
-25.736191 -12.977513 -7.0462232
28.140772 -12.132721 -8.6646643
-36.885651 -9.9833908 -7.6911001
-35.52227 -11.557876 -8.0013733
-27.454208 -10.821382 -6.6580448
-25.503017 -10.996399 -7.6336021
-23.821066 -11.127475 -8.1968327
25.771902 -11.028596 -7.6164694
28.217846 -10.970615 -7.2069712
31.802359 -9.8968172 -7.7982836
33.159538 -9.2618351 -8.3615723
-39.173943 -6.2730742 -6.9412079
-38.288956 -7.9942989 -7.5203333
-30.327492 -6.277904 -6.1045971
-27.757288 -7.7352257 -6.3935595
-26.496828 -7.4423118 -7.9176612
25.821833 -7.3759813 -8.0730047
28.361834 -7.3472648 -7.2508554
31.860559 -7.3592019 -6.6815114
34.092464 -7.0906234 -7.193315
36.117897 -6.2847428 -8.7494726
-39.340519 -4.3304749 -7.3426981
-37.389122 -4.1771774 -6.8365736
-35.711067 -3.457927 -6.7625713
-30.550776 -4.4331031 -6.4378452
-28.344015 -4.2061524 -6.4660702
-26.42799 -4.7383728 -7.8655748
26.284943 -5.590775 -8.6863985
28.35144 -5.4735346 -8.3418293
31.645346 -5.0510697 -8.2748318
34.801174 -4.5916667 -6.582056
37.454216 -4.2708287 -8.0160208
39.46357 -3.4828858 -8.4117031
-39.231213 -2.3821492 -8.3109083
-37.271179 -1.7255269 -8.3971415
-34.94141 -1.6377203 -7.062952
-31.326286 -2.067338 -6.3479996
-28.381359 -2.1508222 -6.6515412
-26.146904 -1.4334949 -7.7060108
35.098358 -2.3935485 -7.7838812
37.724346 -1.3548224 -7.1016097
39.26656 -2.0463569 -7.8368039
-36.22448 1.1566538 -8.5186872
-35.168785 1.424867 -6.6329522
-27.608925 2.2393408 -6.0584908
-25.449631 1.7744678 -7.284956
37.956486 0.71942866 -8.1427336
-36.075638 3.6300914 -8.5984669
-34.535946 4.4979887 -7.0418692
-31.740192 4.4479785 -6.2636995
-28.685724 4.3910112 -6.2436624
-25.66568 4.3769884 -7.6243691
-34.045105 7.2186418 -7.6117659
-31.554138 7.6273069 -6.7389045
-28.264275 7.6499414 -6.6523747
-25.790968 7.348032 -7.7366848
-33.064476 9.0072479 -8.7026806
-31.275635 9.4664297 -7.7942343
-28.543694 9.5486279 -7.8908691
-26.74914 9.2114687 -8.6968727
11.848299 17.923267 -8.8369045
13.650004 17.220882 -7.5117526
16.536283 16.908672 -7.5520692
18.342268 17.378803 -8.3697166
-24.28517 20.382015 -8.8278999
-23.413652 20.508247 -8.7542591
11.112334 19.897926 -7.5768156
12.339809 18.782681 -6.899425
17.434368 18.405693 -6.2693715
19.439802 19.414351 -7.5089235
-24.43301 22.066484 -8.8770447
-22.622433 22.587864 -8.5117226
-20.09407 23.61973 -8.7130785
8.6296482 23.184031 -7.6677966
10.073174 22.069147 -6.9441385
12.047948 21.457893 -6.065506
17.680439 23.819498 -6.5588536
19.362619 22.561731 -7.4642148
-22.098469 25.733551 -7.8514905
-19.385073 25.539707 -7.4519672
-16.503788 25.457756 -7.9253974
-14.409495 26.42922 -8.2006245
5.9057274 26.761921 -8.674943
7.8653402 25.813633 -7.3764172
9.0398703 24.067471 -6.2023644
17.108004 25.379711 -7.5739408
18.361954 24.32082 -8.4621658
-21.952238 28.299297 -7.7578154
-20.765129 28.463564 -6.7037044
-15.145424 27.388895 -6.5707541
-13.44688 28.272081 -7.1795321
-11.010619 29.513826 -7.6625872
-8.0991163 29.81637 -8.5644617
2.3027225 29.814392 -8.5469446
4.7012186 28.7362 -7.3216262
7.5887847 27.723911 -6.6697154
14.774131 29.880131 -7.2048798
16.210543 28.419233 -7.832664
-21.568382 31.019285 -8.5296955
-20.148478 31.85853 -7.6468997
-17.478855 32.906921 -6.267827
-12.466059 30.059448 -6.0850816
-10.185271 30.692289 -6.8274717
-7.448071 31.186041 -6.9871483
-4.4088035 31.57914 -7.1782107
-1.4918659 31.693068 -7.2639036
1.361178 31.011761 -7.0973363
3.4862556 30.607395 -6.6413779
11.317132 32.35511 -6.9837413
13.241981 30.834175 -7.4305296
-19.021059 33.707623 -8.3434477
-16.372242 34.677814 -7.3513927
-14.306544 35.718758 -6.9934802
5.2320533 35.778587 -6.4359713
7.4571633 35.315578 -7.3215666
10.532278 33.908615 -7.8004513
-15.07564 36.058563 -8.3752556
-13.294584 36.549694 -7.5101814
-10.380893 37.250549 -7.3043633
-7.6498742 37.619274 -7.4584889
-4.5786552 37.712345 -7.3966727
-1.6428056 37.874245 -7.3609571
1.5937597 37.493275 -7.311522
4.3843999 36.687119 -7.6755443
6.9605441 36.192543 -8.3959646
-34.374786 -12.80198 -4.3666835
-31.152519 -13.44041 -4.3172789
-28.543594 -12.79012 -4.6261535
-26.099075 -12.757883 -5.2745733
-37.18008 -10.581335 -4.202106
-34.071629 -9.7754316 -3.4209645
-31.277515 -10.664271 -3.9128759
-28.779516 -10.592144 -4.973134
-26.258511 -11.898236 -5.6366992
28.948788 -10.08354 -5.7801905
30.423819 -9.3197737 -5.8313165
-39.156937 -6.7061238 -4.796133
-37.165993 -7.214335 -4.4762917
-34.810387 -7.5634823 -4.3688221
-31.171602 -7.8104954 -5.0476413
-28.425491 -7.609035 -5.4672871
31.316208 -8.5447035 -5.9077997
-39.171474 -4.9975944 -4.5353775
-38.289993 -5.0241022 -4.9886203
-34.626289 -4.6782899 -5.2296438
-32.186733 -4.2090073 -5.618701
-27.501871 -5.6281066 -5.8895469
-33.758602 -2.1042576 -5.7547631
-31.709379 -1.5757966 -5.7563887
-28.550507 -0.78028452 -5.7614303
-33.736412 0.77073407 -5.8655553
-31.443552 1.3332027 -5.6966243
-28.412117 1.2860624 -5.7455301
-26.710808 1.4797169 -5.8857965
-30.723137 3.1038828 -5.9430046
-29.967768 3.1344881 -5.9653969
14.164075 17.551352 -5.6445446
15.321965 17.394918 -5.890914
13.622776 19.444597 -5.0947571
16.188478 19.67384 -5.2894683
18.51532 20.585236 -5.7029305
10.971351 23.126648 -4.5781808
13.186502 22.382988 -4.659884
16.356001 22.715435 -5.0456028
18.508995 21.891247 -5.7416229
-19.494593 26.724796 -4.8343086
-17.104599 26.752348 -5.4464655
8.8087559 25.750023 -5.4099092
9.8240404 25.126623 -3.8736033
13.762379 25.353155 -3.4453614
15.762918 25.549307 -4.5565171
-21.142334 28.51049 -4.4134288
-20.504641 27.941067 -4.2939711
-15.837745 27.664278 -4.3186603
-14.454539 29.228441 -4.8270817
5.4406333 29.727642 -5.0283256
7.9312305 28.932364 -4.9760695
9.9896507 29.030798 -4.1168966
13.782067 28.594969 -3.8727975
15.608294 27.915024 -4.7354074
-19.33329 31.436762 -4.5801563
-16.504021 32.176617 -4.2543774
-13.767697 30.826576 -4.2954879
-10.496953 32.15361 -4.9698162
-7.6980133 32.503044 -5.3133693
-4.5574183 32.822392 -5.7961569
-1.1956924 32.807659 -5.766151
1.5152129 32.384331 -5.099071
4.3166146 31.568388 -4.5191855
6.4098196 30.179691 -3.3861318
11.113033 31.46224 -4.4078259
12.489199 30.574715 -5.3829956
-15.821876 33.786003 -4.7996945
-13.343583 35.61768 -4.5334797
-10.875639 34.457245 -3.7738175
-6.7176476 33.999996 -4.0900731
-5.0056973 34.265247 -4.2989368
-0.84772801 34.141453 -4.297514
0.75640672 33.41581 -3.885083
5.1416998 34.731148 -4.4759207
7.3763227 34.495499 -4.5749969
9.7841444 33.663837 -4.1742887
-12.213311 36.132584 -5.5264955
-10.530519 36.812725 -4.7669687
-7.0131145 37.195934 -4.20719
-4.9633126 37.130127 -4.4064784
-1.0943725 37.20438 -4.4604063
1.1936685 36.798756 -4.6952314
3.5638123 36.235561 -4.3962898
-34.203083 -12.696168 -1.5017802
-31.472448 -12.833549 -1.8971481
-29.85758 -12.446824 -2.8565614
-36.984932 -10.158903 -0.87348658
-34.554482 -10.28314 -1.35658
-32.205967 -11.37792 -1.7273251
-39.120155 -6.4104691 -2.4747272
-37.761265 -7.5005422 -1.0436642
-35.810989 -8.779665 -1.7722484
-39.101482 -5.3039541 -2.7119162
-38.561436 -5.5574188 -2.1409533
11.006021 25.763809 -2.5685482
12.880572 26.308174 -2.8603854
-21.047169 28.325663 -2.9019909
-19.612989 28.317993 -2.3984854
-16.293734 28.620756 -1.8462846
-14.884331 29.149933 -2.4899337
8.6238174 29.993519 -2.9860716
10.886649 27.987005 -2.6696708
12.291826 27.714651 -2.907649
-19.029478 30.517508 -2.14622
-16.123413 31.432022 -1.8771528
-14.096589 32.185265 -1.5319632
-11.58551 32.909863 -2.8923178
5.125649 31.778149 -1.8608232
7.3130827 31.464376 -1.3862931
10.304969 31.318214 -2.4102514
-15.625294 33.525898 -1.6317459
-13.191106 34.537807 -1.1900723
-11.001823 34.72887 -1.7087003
-7.2799172 35.189556 -1.4883449
-4.6981859 35.290321 -1.6446309
-0.96028131 35.282856 -1.4900362
1.3825824 34.805492 -1.1441698
4.641325 34.280678 -1.6045082
7.8946028 33.522015 -1.8072838
9.7125998 33.268929 -2.3399837
-10.253892 36.70697 -1.7252976
-7.1618614 37.010418 -1.6658909
-4.7262583 36.972275 -1.7353933
-1.1852077 36.959171 -1.7867788
0.95636284 36.324619 -2.090157
3.2992146 36.120358 -2.500005
0 0 0 1 0 0 0 1 0 0 0 1 0 0 0 0 0 871 1 0 0
