ply
format ascii 1.0
comment PCL generated
element vertex 605
property float x
property float y
property float z
element camera 1
property float view_px
property float view_py
property float view_pz
property float x_axisx
property float x_axisy
property float x_axisz
property float y_axisx
property float y_axisy
property float y_axisz
property float z_axisx
property float z_axisy
property float z_axisz
property float focal
property float scalex
property float scaley
property float centerx
property float centery
property int viewportx
property int viewporty
property float k1
property float k2
end_header
38.381199 13.781247 23.700245
40.319942 13.499998 23.58024
43.884552 13.761534 23.461773
46.752098 14.052167 23.539368
49.69693 13.934324 23.445019
53.055454 14.161109 23.311338
59.087238 14.273241 23.201643
60.635189 13.711763 23.612007
53.836277 15.831812 23.345695
54.378178 17.008694 23.635025
58.704609 16.492939 23.407291
54.824909 19.024996 23.700241
59.808994 18.490902 23.482056
60.737396 18.862497 23.562744
13.396264 13.959816 26.318939
15.820693 14.089657 25.54163
20.643751 14.414061 25.912754
22.479404 13.53235 25.241426
25.519547 13.878262 24.916544
28.451586 13.693548 24.47443
30.728537 13.371425 24.193102
35.87138 13.628568 24.000242
36.899956 13.72 24.050241
53.920486 13.861764 24.485542
54.703972 14.179591 25.788012
59.924892 14.924997 24.000244
60.830666 14.573073 24.161781
13.66568 16.092529 26.677895
16.42683 16.628042 26.056343
19.523302 16.610676 25.86142
55.309776 16.597675 25.280487
59.7076 16.469227 24.069471
60.737186 16.688133 24.356178
16.428467 19.536922 26.441818
18.992855 19.324999 26.039557
55.671036 19.62282 25.321062
61.01989 18.359997 24.000244
13.705723 22.362856 26.648834
16.627785 22.477776 26.494711
18.85862 22.624144 26.43648
55.651272 22.567568 25.443502
20.283335 25.183331 26.633598
53.999908 26.999996 25.350258
55.054905 25.642498 25.72024
58.648323 26.557884 25.860264
60.566563 26.266665 26.416931
53.656544 28.561443 25.988216
56.074699 28.189924 25.946466
58.997124 28.559668 25.866545
60.665649 28.816433 25.92355
53.443813 31.595119 26.261246
55.987404 32.962498 26.100266
59.041836 32.193539 26.148632
60.740406 30.991133 26.130644
53.61554 34.537498 26.475266
55.284897 33.93 26.385265
59.13467 34.356518 26.40897
60.803123 33.764511 26.313169
53.212414 37.049995 26.700272
55.416569 37.533337 26.683598
59.027164 37.590908 26.618443
20.058678 13.740717 28.374573
21.299992 12.899997 27.180277
55.986572 13.824442 28.333624
12.987698 17.363075 27.069496
15.00001 17.999996 27.000273
19.233053 16.639368 28.282972
56.167332 16.610865 28.38508
13.434051 19.6234 27.425829
15.23685 19.610525 27.000273
19.025637 19.692307 28.282331
56.299919 19.684614 28.379766
13.077785 21.76667 27.161377
17.166674 23.433327 27.000275
19.730774 22.799994 28.369501
55.952049 22.609854 28.337603
20.662218 25.554546 28.370209
55.519398 25.653898 28.223656
58.922127 26.572218 27.405827
60.424896 26.624998 27.150278
13.13817 28.932816 28.358292
15.000008 29.699999 27.600279
20.973333 27.553333 28.466957
21.528006 28.967995 28.371279
53.899921 29.363634 27.409363
55.287224 28.288895 28.257433
58.681767 28.195265 28.214472
60.746132 28.856251 27.62653
13.590293 30.748537 28.348835
15.000007 30.699999 27.766947
18.707144 32.828575 28.285997
21.409634 31.49423 28.630095
53.776108 31.526192 28.190762
54.319908 30.42 29.400297
59.999893 32.549995 27.000273
60.942745 31.092855 27.150274
17.404287 35.010002 28.736002
19.200014 34.240112 29.036123
21.346483 34.571831 28.859444
53.809429 34.566662 28.402674
55.794312 34.630379 28.219902
58.213997 34.542282 27.763371
60.599895 33.149994 27.000275
11.700001 38.399998 29.100294
12.000003 38.999996 29.400299
17.04706 36.741177 29.217941
18.947369 36.857895 29.152922
21.778112 37.546871 29.142479
53.593884 37.678196 28.27021
56.059628 37.348991 28.113705
58.09306 37.419865 28.120144
12.759377 40.293747 29.606548
19.878565 41.471428 29.450289
22.931238 40.60313 29.311235
52.842293 40.647469 28.449459
54.90873 41.805882 27.635576
13.971431 42.599998 29.7003
17.759998 43.079998 29.700302
19.41428 42.535709 29.593161
23.957127 42.385708 29.486012
24.754261 43.602856 29.520298
50.743664 44.28125 28.462791
52.17358 43.028946 28.695023
55.756104 43.066399 28.160873
57.566563 43.39167 27.791948
61.103878 44.363998 27.804279
25.406229 45.974995 29.700298
49.980438 46.438934 29.060461
59.781734 47.474998 28.718468
60.674053 46.05843 28.739614
47.342476 50.144676 29.413057
48.685638 48.635712 29.336004
56.492199 50.399998 29.369526
58.337887 49.167015 29.097301
45.991764 52.132652 29.632954
51.985634 52.594284 29.546011
55.4347 52.078255 29.369862
53.236294 55.963634 29.7003
54.873829 54.860867 29.635084
16.080004 11.999998 31.800323
18.3375 11.999995 31.650322
58.199898 11.999998 32.100327
16.578573 12.824999 32.032475
18.795103 13.573428 31.342985
56.813248 13.49 30.820305
58.457035 13.703568 31.961018
61.112789 13.716128 31.645472
19.045631 16.658697 31.415535
56.489227 16.887022 31.115589
58.580589 16.562073 32.253445
61.06741 16.316887 32.322426
18.89069 19.551161 31.358461
56.195152 19.648233 31.503851
58.025253 19.222387 32.628689
61.19989 20.999998 32.700333
19.22537 22.587692 31.276459
56.717796 22.580591 31.296572
57.324909 22.574997 32.675323
61.371319 21.657139 32.671753
17.463161 26.542105 32.431911
20.023176 25.505493 31.40519
56.412342 25.667582 31.167208
57.333244 25.477774 32.589214
12.000008 29.699997 30.000305
17.400003 27.059998 32.700333
20.695148 28.362099 31.555975
21.29999 29.595001 30.570307
55.664318 28.493616 31.489187
57.299896 27.149996 32.700333
61.349888 29.399996 32.700333
20.662495 30.637497 32.175327
21.300022 31.573582 31.378637
53.999912 32.454544 30.163942
54.670242 31.342756 31.521049
61.430656 30.669228 32.700325
19.071428 34.450703 30.737476
21.30002 34.617645 31.188562
53.999912 33.249996 30.275309
54.771294 34.637497 31.566395
17.100004 36.900002 30.000307
19.545454 36.499996 30.845766
21.52915 37.724415 31.271185
53.999901 37.742859 30.436014
54.969284 37.371429 31.847267
58.063534 37.690907 31.963961
12.520835 40.970833 31.150309
19.755877 41.761761 30.317947
22.540747 40.710331 31.405743
53.664001 40.764103 30.87722
54.398155 40.525864 32.426186
13.762499 43.503265 31.417183
19.547365 42.489468 30.339777
23.788223 43.164707 31.732691
24.439264 44.16428 30.702091
52.641525 43.658398 31.412025
55.229893 43.65667 32.573689
59.110615 44.774998 32.582466
61.039623 44.239727 31.935942
14.609441 45.407558 31.511642
15.481038 46.931889 31.650326
23.999979 46.259995 32.620327
24.905584 46.555897 31.235703
50.619568 46.955345 30.31101
51.894169 46.328026 31.679911
55.873077 45.351223 32.634468
59.191917 46.5835 31.766199
60.757774 45.872372 30.687153
16.935133 49.035137 31.630068
18.556002 50.143986 32.196335
21.899994 50.999996 31.843182
25.983501 49.227135 31.506712
27.843725 50.512501 30.45031
47.924927 50.450001 30.125299
49.688919 49.562988 31.075811
52.663834 49.523403 31.579329
55.60886 49.48954 31.221207
58.409321 49.081131 31.530514
19.160292 52.239689 31.926069
22.035646 52.025211 31.917727
25.987257 52.582157 32.050636
28.47389 52.341305 30.832941
31.662832 53.117142 30.596039
34.035683 53.292847 30.464596
41.154491 53.577282 30.041216
42.642799 53.700005 30.000305
47.247036 52.41058 30.303179
49.017754 52.259987 31.787468
52.588703 52.672981 31.318174
55.076931 52.576397 31.276716
19.616379 55.031898 32.164986
22.555042 54.820183 31.987463
25.463251 54.195946 31.353371
29.079298 55.310356 31.114111
31.627319 55.573257 31.47414
34.526005 55.532955 31.30088
37.715771 55.771095 30.873985
40.768314 55.730675 31.058599
43.16634 55.567253 30.556353
47.578499 54.435726 30.343166
49.893028 54.967224 31.172726
52.322479 55.875008 31.211277
55.654037 55.502743 31.321405
23.653847 59.030766 32.654175
24.663828 59.412754 32.457775
29.797058 58.694111 32.065025
30.495005 57.690014 32.090324
35.294994 58.146 32.100338
37.649033 58.517181 31.930241
39.96151 57.353859 32.26186
43.445049 58.25882 31.627769
46.972073 58.529537 32.395443
49.587978 58.492832 32.161388
52.579643 58.004875 32.10453
54.755489 57.477787 32.08366
25.718481 60.541298 32.328617
29.069994 60.66 32.310326
35.999969 60.419994 32.640327
37.133293 60.249985 32.650322
44.116936 60.588665 32.055046
46.784485 60.596905 31.859089
49.459953 60.571438 31.920332
13.321433 11.807139 34.471779
15.225003 11.824998 33.800343
13.497486 13.678994 34.921349
16.23671 13.595735 34.160431
18.226406 14.032078 33.475811
13.212255 16.420408 35.46772
16.527811 16.745852 34.646687
18.37031 16.476561 33.29565
59.999897 17.999996 33.000336
61.010426 17.794735 33.00034
13.528178 19.670719 34.437374
16.324863 19.597292 34.174416
18.365057 19.716866 33.62566
59.2076 19.973078 33.081108
61.166111 19.525827 33.868565
13.241452 22.142769 34.413509
16.672344 22.10638 35.315269
18.507524 22.700756 33.983795
58.867779 22.81608 33.63781
60.920937 22.734217 34.310883
14.25834 26.341667 35.308689
16.651974 26.003309 34.713535
18.789476 25.622816 33.888096
58.771572 25.546694 34.232929
60.449905 26.815388 34.684963
13.561542 28.453838 35.036236
16.372412 28.075874 34.910709
19.450443 28.522181 34.326874
56.598026 29.309433 33.345631
58.620274 28.519106 33.543018
61.079884 28.112 34.046356
13.260871 30.76087 35.230778
20.50469 31.419456 34.542633
21.299994 31.799997 33.000336
56.043652 31.73958 33.858688
58.506565 30.933344 34.724796
61.072102 30.824999 34.300343
17.123077 35.599995 35.338821
19.786198 34.49749 34.423786
56.233925 34.346195 34.226254
58.616428 34.683464 34.329273
60.757038 34.35714 35.214642
13.513338 38.273319 35.023685
16.417807 37.676704 35.06131
19.793682 37.539478 34.40876
21.29999 38.399994 33.284557
56.214729 37.877773 33.215134
58.687061 37.397102 34.094986
60.803585 38.266659 34.396648
13.224169 40.602383 34.271439
16.011864 40.022038 35.30883
20.128416 40.610527 34.711948
21.688463 40.869221 33.392643
55.499912 40.53693 34.235825
58.816727 40.293346 34.276882
61.051533 40.521431 34.261345
14.033587 42.959553 34.223248
16.327276 43.67123 34.503399
19.453978 43.656826 34.720207
22.510441 43.753727 34.063026
56.181156 43.054176 34.379517
58.487751 43.958771 34.418316
60.97636 44.599987 33.670925
16.045551 46.390095 34.38599
20.19705 47.007332 34.570938
22.723421 46.622997 34.141327
24.299982 47.82 33.000336
50.999912 47.57143 35.571789
52.386082 46.315395 34.360348
55.753586 45.613247 34.385662
58.839344 46.66264 34.475079
60.961426 45.384609 35.177277
16.593369 49.175484 34.560055
19.696035 49.250912 34.289162
22.674189 49.511234 34.213257
24.660667 49.995502 33.748642
50.999912 48.299995 35.550362
52.434288 49.619999 34.268291
55.559902 50.167831 33.762085
59.203045 49.854687 34.04409
60.299904 48.854549 35.318542
17.628954 53.194733 35.076675
19.007938 52.130146 34.097172
22.396397 52.782738 33.885231
24.6525 52.009995 34.210361
50.006462 52.228657 34.280224
52.635296 51.613262 34.327789
55.845272 52.306671 34.463013
58.17783 51.480888 35.184174
17.645458 54.409096 35.08218
18.971506 55.795338 34.071346
22.913647 55.560757 34.300789
25.681622 55.895931 34.857513
28.442469 55.984993 35.112865
32.30452 56.768177 33.30035
33.787483 56.90625 33.206589
44.805336 56.52161 34.597645
46.650654 55.984035 34.443851
49.678913 55.660049 34.192799
52.727497 54.382759 33.372753
56.66885 55.508274 34.218979
57.299911 54.319992 35.400356
20.182896 57.434216 34.946415
22.5137 58.580837 34.301712
25.655766 58.386536 33.734974
28.811865 58.525436 34.327477
31.453966 57.557678 34.498508
34.574581 58.327942 34.477493
38.757317 59.073521 33.931232
40.614197 58.260288 34.58696
43.65797 58.122231 34.44973
45.814243 57.830357 33.39677
50.324947 56.999996 33.075333
53.047634 59.306808 34.052608
55.246067 57.965393 34.433044
23.121431 60.337524 34.500355
25.442554 60.478714 33.351406
28.556238 60.581249 33.848785
35.589092 60.391304 34.278614
38.08046 60.45974 34.083466
39.839958 60.119995 35.700363
42.299953 60.299995 35.700363
50.785656 60.72858 33.257481
51.942123 60.375031 34.401909
13.593003 14.630998 37.758377
15.000008 14.999998 38.520393
13.432172 16.66696 36.952557
15.49727 16.635614 37.422295
13.432257 19.496784 37.192337
15.225004 18.664282 37.48431
13.525175 22.004883 37.317875
15.84114 22.984167 37.042797
61.066555 23.089581 37.410809
13.4386 25.594732 37.484604
15.919765 25.214376 37.094414
59.819416 25.638281 37.284763
60.299896 25.399994 37.175381
13.432261 28.383873 37.553608
16.291973 29.592684 37.241997
18.66923 29.51539 36.131138
59.629917 29.149996 37.755379
60.857754 28.61227 37.203896
13.347063 30.909805 37.302349
16.596779 31.151609 37.955212
18.952726 31.572723 37.15131
56.862415 32.499992 37.269127
58.139099 30.909805 37.306274
61.171322 30.157137 36.243225
14.400007 33 38.400391
17.135298 35.417641 36.723907
18.852716 34.447823 37.449856
56.206135 34.507458 37.336422
59.795887 35.003994 36.660378
60.66552 35.268749 36.478493
13.751356 38.481068 36.539562
16.470404 37.685646 37.180222
18.851614 38.216129 37.730225
56.628876 36.659214 37.701706
58.490364 37.911098 37.194038
60.786369 38.189198 36.884167
13.729255 40.484287 37.590805
16.162941 40.83477 37.172577
20.461889 40.414291 37.090851
21.344988 40.844997 38.317883
55.525532 40.518097 37.340591
58.640526 39.632816 37.165234
61.080402 40.172043 36.669029
13.442997 43.540508 37.444901
16.385454 43.667732 37.293121
19.486959 43.503536 37.311859
22.289467 44.447376 37.384586
55.588791 43.541275 37.287697
57.799892 44.516666 36.067032
14.61429 46.954281 38.057533
16.029949 46.110168 37.24691
19.599445 46.902763 37.473854
23.402971 46.664188 37.180984
50.999916 47.53846 36.46191
52.483894 46.339825 37.396996
55.577763 45.446556 37.475208
59.152149 46.455498 36.761028
61.099888 46.270576 37.359203
14.574201 48.590324 37.718128
16.055799 50.025417 37.076096
20.010288 49.445591 37.08569
22.354422 49.52533 37.326965
24.299986 50.775002 36.000366
50.999916 48.299992 36.641277
51.844429 49.83469 37.465729
55.234783 50.469753 38.52597
59.826843 50.119221 37.569618
60.404472 48.966042 37.227917
17.37372 52.403652 37.55949
18.956522 51.439137 37.182999
23.115952 52.321262 37.961517
24.326649 52.066662 36.453705
50.612106 53.056087 36.256477
52.877586 52.262424 37.051121
55.833706 52.46196 37.627125
58.265739 51.958549 37.355854
17.47703 54.587841 37.451733
18.383505 56.106178 37.290077
23.215681 55.172539 37.85923
25.674994 55.48909 37.266045
28.382753 56.016571 36.944111
30.299974 56.999992 36.000366
46.958412 56.530178 36.266407
50.094551 55.604462 36.378036
52.683643 55.540482 37.64872
55.986614 55.452354 38.019245
57.364582 54.511761 36.906254
19.852663 57.808407 37.390446
21.778996 58.852924 37.674351
25.901937 58.144646 38.461563
28.85775 58.425453 37.675541
31.489479 58.627998 36.615067
33.999966 59.278255 36.396019
40.349953 59.999992 36.000366
44.41317 58.910278 36.291546
46.553722 58.404823 36.817627
49.673691 58.329834 37.322952
52.814377 58.670189 37.882584
55.2523 58.022213 37.536896
21.878571 60.214287 36.94323
26.624989 60 38.550388
28.87998 60.23999 37.800388
31.614685 60.150024 37.279789
34.489258 60.267864 36.643223
40.637791 60.445953 36.170643
43.689426 60.244743 36.276691
46.715931 60.168007 37.308372
49.666592 60.158344 38.092056
52.499924 60.22858 37.150387
13.753678 14.221328 40.379086
15.000005 14.849998 39.962902
14.700004 15.299997 41.700424
15.673519 16.500002 40.389153
13.743887 20.197121 40.332047
15.411246 18.802244 40.402657
13.834044 21.982977 40.357849
15.308004 23.459995 40.320404
61.443661 23.334372 39.878517
13.270596 25.464706 39.159214
15.62401 25.583996 40.320385
59.888073 25.952539 39.549545
60.895763 25.331509 40.88055
13.897591 28.458429 39.83894
16.116673 29.01853 40.439274
59.666576 29.295229 40.00993
61.043415 28.496778 40.531002
14.385722 32.314285 39.343258
16.529177 31.366678 39.933735
18.615219 31.699993 40.411289
56.999897 32.607689 39.461941
58.337269 31.347191 40.570507
61.619888 31.217146 41.631855
14.570278 33.794594 40.508518
15.190911 33.796364 40.456768
19.511801 34.547192 40.294777
56.443508 34.546921 40.404858
57.789364 33.426315 41.455692
61.521309 34.510715 41.432552
18.916933 37.700001 40.318848
56.587414 36.809998 40.076637
58.281422 37.952332 40.812706
61.17704 37.425713 41.123253
13.261873 41.058769 40.140388
15.837213 41.323246 41.449268
20.579996 39.660007 40.800407
21.38789 41.036358 40.082214
55.902817 41.028492 40.139359
58.632557 40.456291 40.432537
61.205513 40.556091 40.685429
12.913236 43.638226 40.376846
16.457148 43.696735 41.365307
19.918179 43.367531 40.504257
22.04142 44.68713 39.78896
55.792564 43.570248 40.373074
58.506004 43.561211 40.514683
61.094482 43.544594 40.472031
14.340621 45.953121 40.272259
16.088652 46.435787 40.745392
19.678226 46.325287 41.121567
22.842508 46.521259 40.70002
52.98238 47.186588 39.470478
55.826443 46.547787 39.273815
58.647045 46.449059 39.673996
61.081699 46.093918 40.021618
14.568428 48.510525 40.010941
16.338739 49.735962 40.752949
19.606705 49.438141 40.393677
22.371424 48.927937 40.187344
52.764492 49.385426 39.412888
55.684692 49.171223 39.223557
58.704956 49.440678 39.590237
17.414633 52.5439 39.589417
19.346708 52.465374 39.613594
21.670572 52.87941 39.062145
56.884506 51.276913 39.11578
57.987705 51.285366 39.315018
17.573689 54.426319 39.750412
19.317776 55.442966 40.288441
21.792624 55.926327 39.562496
19.963106 57.483498 39.95866
22.364326 58.408245 39.455154
24.809429 59.071693 39.181526
22.975 60 39.725403
24.921423 60 39.493259
13.443751 14.831249 42.337925
13.888885 16.51111 43.559704
15.26522 17.00869 42.539547
13.722306 19.320864 43.096863
15.203233 18.62903 42.455276
13.70667 22.951113 42.984886
15.09546 23.672724 42.327698
13.975863 25.564137 44.172871
15.305775 25.569223 42.724495
61.807575 25.869232 42.123516
13.849405 28.36235 43.346897
15.921432 29.347952 42.860649
61.971313 27.128567 42.000427
13.534883 31.453465 43.719006
16.592932 31.237509 43.497169
18.389996 32.17799 42.402435
59.649914 31.578568 42.000454
61.110596 31.321444 42.05761
13.658018 34.653435 43.088226
16.494738 34.456127 43.891663
18.84478 34.525764 42.999821
58.703346 34.707546 42.23674
60.554882 34.702492 42.045448
13.731825 37.412716 42.622242
16.436752 37.575893 43.09201
18.349316 37.389046 42.440151
59.15324 36.766666 42.067097
60.299889 36.479992 42.000427
13.665307 40.316326 42.205555
16.688892 40.208347 42.150455
19.510523 40.757927 42.342545
14.080329 43.495064 42.000465
15.000002 42.599995 42.000427
19.199995 42.395985 42.000431
16.550001 47.833332 42.000427
16.25 48.64999 42.000423
0 0 0 1 0 0 0 1 0 0 0 1 0 0 0 0 0 605 1 0 0
