ply
format ascii 1.0
comment PCL generated
element vertex 669
property float x
property float y
property float z
element camera 1
property float view_px
property float view_py
property float view_pz
property float x_axisx
property float x_axisy
property float x_axisz
property float y_axisx
property float y_axisy
property float y_axisz
property float z_axisx
property float z_axisy
property float z_axisz
property float focal
property float scalex
property float scaley
property float centerx
property float centery
property int viewportx
property int viewporty
property float k1
property float k2
end_header
7.6876168 -16.899519 -9.2876501
9.9010019 -17.149515 -9.1358776
-30.632113 -6.0175829 -10.374117
-27.661823 -6.1209459 -9.6767836
-25.439131 -6.3662691 -9.747777
-22.604492 -6.6209459 -9.6408033
-19.744186 -6.8821473 -9.5005589
-30.746368 -5.697156 -10.052414
-28.756218 -5.8836746 -9.7977629
10.893556 -18.07819 -6.2729225
5.9415603 -17.380909 -6.938241
7.6073046 -17.412712 -7.5058851
10.240298 -17.619307 -7.6345096
12.133731 -17.776228 -7.7423935
-12.109276 -9.0041952 -6.0015388
-8.142662 -9.2925282 -6.1259789
-30.950529 -6.2597346 -8.7249632
-28.146545 -6.2871985 -8.2326193
-25.234388 -6.5414414 -7.8197446
-22.484144 -7.2824211 -7.2529197
-19.463848 -7.731339 -7.3297315
-16.842173 -8.4768524 -6.1982746
-13.114968 -8.8974619 -6.0803475
-31.372908 -5.971139 -8.8742142
-27.99007 -4.3914118 -6.5036407
-25.553162 -4.4536896 -7.7943692
-22.741468 -4.338737 -7.2948956
-30.674004 -1.1158442 -6.5380564
-28.43886 -1.2166697 -6.5517302
-25.569838 -1.5091543 -7.4723434
-22.853626 -1.6563466 -7.3076115
-30.628223 0.98371828 -6.7314734
-28.685612 1.0550709 -6.6147423
-25.421207 1.4890313 -6.5901899
-22.494022 1.3063228 -7.1424007
-20.285933 1.7654041 -6.6702871
-28.076483 4.6419473 -6.8239112
-25.65003 4.4784417 -6.3971505
-22.471426 4.4563417 -6.5920248
-19.772684 4.6064801 -6.6707025
-27.866077 6.7884932 -6.698997
-26.09977 7.477735 -6.3632975
-21.726229 6.8637843 -6.3781128
-19.930305 7.0825529 -6.4482727
-25.523722 10.24072 -6.2526269
5.8953824 -18.326187 -3.7217486
7.6041689 -18.339695 -4.2952209
9.9590092 -18.429676 -4.7605424
5.9019675 -17.727659 -5.7058182
7.1196833 -17.898083 -5.6388397
9.0468817 -17.978168 -5.8965702
-12.267362 -9.02666 -5.8673635
-10.241247 -9.190629 -5.7001171
-8.0629406 -9.4008427 -5.6619706
-30.030752 -6.0689025 -3.8196619
-29.458313 -6.2000113 -4.4220605
-21.815517 -6.806385 -4.6631846
-19.981071 -7.5116577 -4.250227
-16.268677 -8.3495512 -5.6629839
-13.611789 -8.7732468 -5.7864022
-11.551231 -8.9323664 -5.6253595
-30.508389 -4.3690524 -4.5178723
-29.036955 -4.6138186 -5.8561506
-21.518745 -4.6954408 -4.8448672
-20.211517 -4.4148912 -3.466157
25.519365 -4.206531 -3.1473866
-31.354452 -1.5893284 -4.6252966
-28.677176 -2.3700833 -5.8243241
-21.702763 -1.3005605 -5.0027661
-20.114567 -1.413823 -3.8010681
25.86083 -2.9445586 -3.0291927
-30.917418 1.2359645 -4.5791297
-28.625778 2.4081516 -4.9474478
-26.803633 2.2194974 -5.8815622
-21.391924 0.071525544 -5.8789001
-19.500992 1.4431583 -4.529635
-28.758976 4.5026174 -4.5749559
-24.874031 4.1934485 -5.9228973
-23.653126 5.306098 -5.9274435
-18.522478 3.8049152 -5.0070567
-17.624844 4.9260201 -4.2679639
-28.164795 7.4704919 -4.55374
-24.871267 7.5085711 -5.652204
-22.826088 7.7585583 -5.5531201
-18.847876 7.9640946 -4.9949231
-17.626791 6.793539 -4.2690935
-27.322077 9.8399925 -4.156889
-25.981194 11.172402 -4.8253007
-22.331327 10.573861 -5.1001072
-19.606392 10.420895 -4.4736872
-17.279631 11.327048 -3.8424096
-24.515123 13.254411 -4.2048554
-22.507126 13.429157 -4.6561446
-19.535038 13.528018 -4.1992292
-16.957239 13.416765 -4.1804724
-24.301977 15.535787 -3.7551303
-22.474371 16.312225 -4.0443373
-19.79067 16.157476 -3.3683505
-17.587156 15.268822 -3.5635295
-20.186792 19.230766 -3.1768863
5.8233004 -18.65258 -2.5966101
7.4209867 -18.854689 -2.4490993
9.5571003 -19.12495 -2.2165844
22.467548 -12.141541 -1.2624927
25.939827 -12.392204 -0.76301831
-18.586187 -9.3632307 -1.4181688
-16.622234 -9.6595478 -1.0664396
-13.480348 -10.230116 -1.2281785
-11.422077 -10.450347 -1.1132467
20.504753 -10.043626 -0.072523519
22.771593 -10.503517 -0.96694618
25.346603 -10.395094 -1.469363
27.176159 -9.1222277 -0.08577171
-30.062578 -6.1443815 -1.3422238
-29.90477 -6.5735641 -1.4726278
-19.034803 -7.4279976 -2.0642467
-17.337934 -7.6915584 -0.61072516
20.668482 -7.4262776 -0.095459208
22.515278 -7.4088745 -0.51505697
25.513161 -7.5159602 -1.2556361
27.881603 -7.2322836 -0.77763176
-30.710087 -4.392592 -1.4652354
-18.740107 -4.597858 -2.3623304
-17.38336 -4.3934832 -0.86813217
20.577467 -4.5799589 -0.13558058
22.56328 -4.4308419 -1.1760527
25.605057 -4.72225 -2.7138886
28.041054 -4.5250568 -1.3001482
-31.544197 -1.5893584 -1.4534329
-18.61879 -1.5298668 -2.4132063
-17.272171 -1.4472581 -0.96240377
20.802668 -1.9713877 -0.1175661
22.631447 -1.4782383 -0.99898177
25.443964 -1.5198454 -2.067698
28.26873 -1.5282049 -0.78742689
31.134899 -1.0773709 -0.5230388
-30.644213 1.0033553 -1.2789787
-29.505491 2.1960504 -1.9747665
-18.633974 1.3757995 -2.4097989
-17.124809 1.580362 -1.0264742
20.258638 1.712311 -0.81763643
22.376814 1.4373355 -2.2855253
25.503027 1.5576925 -1.6907773
28.377361 1.4900225 -0.37359551
30.944883 0.6523279 -0.45965567
-30.035378 3.0644591 -0.043843906
-28.830259 4.415133 -1.3760904
-18.08535 3.169704 -2.6149714
-16.956703 4.4920878 -1.4253873
19.679605 4.5308781 -1.4498472
22.579304 4.5207634 -2.2390049
25.349432 4.4172373 -0.84464878
28.5149 4.5053678 -0.73172826
30.350101 4.5054221 -0.57216281
-28.080683 7.5539594 -1.4695846
-18.363752 8.3102655 -2.3700464
-16.883993 7.4321752 -1.3172643
20.176546 7.1680937 -0.8972196
22.555002 7.5053754 -1.1288303
25.239985 7.3985405 -0.27369159
28.208675 7.2444763 -0.30428466
30.0765 6.0923176 -0.32814026
-27.377321 9.6627302 -1.7430373
-25.767704 11.061688 -1.4435854
-18.67017 9.5836906 -2.3546436
-16.633036 10.510285 -1.4225898
17.764927 11.252973 -0.32644397
19.530621 10.676062 -0.60145819
21.676968 9.7538109 -0.21001416
26.396568 9.2044363 -0.05979855
27.737707 9.5915241 -0.24437082
-24.684303 13.51606 -1.3863212
-16.313107 13.618069 -1.4253262
17.799082 12.269817 -0.32107383
19.050724 12.378742 -0.4371652
-24.348812 15.573379 -1.671382
-22.636301 16.879276 -1.6462989
-18.88427 16.855362 -2.4987149
-16.592247 16.309092 -1.5876077
-14.158376 17.070311 -1.0623447
16.645514 16.647488 -0.0040794015
-21.583492 19.577568 -1.3765842
-19.116129 19.675222 -2.5436909
-16.547333 19.518658 -1.7008967
-13.768665 19.440514 -1.3642648
-21.214157 21.24568 -0.85364282
-19.473955 22.144249 -1.3999796
-16.837885 22.273392 -0.55966896
-14.390719 21.340363 -0.72805136
-18.407904 25.364014 -0.52904725
-16.581795 25.525404 -0.6378963
-14.898237 26.552515 -0.049495008
-18.072868 27.221783 -0.18559252
-16.325603 27.964766 -0.34632072
-14.729465 28.102713 -0.10379031
17.513193 -12.73002 2.1198659
19.029425 -12.604588 0.95181876
21.419106 -12.659889 0.61705494
26.453466 -12.694356 0.68834436
28.333944 -12.890078 2.0753138
-16.036219 -9.0818901 0.30733395
17.447226 -10.424701 2.3223233
19.094376 -10.626904 0.78182715
21.934391 -10.631238 0.16338147
26.591528 -10.99748 0.40925768
28.771467 -10.670344 1.0836909
30.187996 -9.8534222 1.8249519
-16.633839 -7.3580675 0.56291956
17.223642 -7.4246082 2.1349199
19.134338 -7.5209961 0.54250854
23.770851 -8.8338737 0.042401575
24.062109 -8.8210497 0.022539735
29.241268 -7.5832872 1.141798
30.881395 -6.918293 1.807194
-31.011232 -3.6744692 0.19942591
-16.328392 -4.3554564 1.0110186
17.049009 -4.5053096 2.0284278
19.096788 -4.3771553 0.7094838
29.292381 -4.244925 0.43261203
31.903284 -4.5595531 1.2150508
-31.493826 -1.3988492 0.48993888
-15.910456 -1.4433333 1.4235792
16.969286 -1.5402588 2.3408251
19.17211 -1.4457482 1.0359735
21.410656 -1.4539572 0.12134186
29.174549 -2.710372 0.27166384
31.866627 -1.6084567 1.4387766
-30.980858 1.6387092 0.87272584
-15.707576 1.4712892 1.3584625
-14.93414 2.169199 2.824743
17.273956 1.4533441 2.1953173
19.043962 1.3726063 0.79357821
29.18656 2.0295866 1.6114267
30.927206 0.84385258 1.4070584
-30.429747 4.0637136 1.8780975
-29.453066 5.0220027 1.1947464
-15.56175 4.4411192 1.2498419
-14.865232 4.5794387 2.6935518
17.040787 4.4656644 2.0802648
18.488436 4.5506287 0.72198921
26.092449 5.843009 0.10498791
29.597168 4.4399862 2.2745845
30.295607 4.4781446 0.80317235
-28.102814 7.4958019 1.6514969
-26.940964 8.8375578 1.2606143
-15.470724 7.4191289 1.1005732
-14.780575 7.7277622 2.5480444
17.150499 7.5198536 2.2386601
19.114744 7.676198 0.86386526
22.122141 8.9566383 0.048490524
25.585222 7.5043573 0.12686026
29.104057 7.4591599 1.5283064
30.067432 6.1020021 0.44112033
-27.325689 9.5708895 2.5715873
-26.522732 10.570241 1.4075382
-15.398536 10.358811 0.70081168
-14.488176 10.619665 2.1598794
17.124851 10.461626 1.5736395
19.116056 9.3846855 0.34696198
22.638315 10.670255 0.47904745
25.525011 10.68435 1.0817801
27.962397 9.9746056 1.3844745
-25.272511 13.488661 1.4983066
-23.96241 14.978973 1.1702073
-15.300773 13.354361 0.4205015
-14.072276 13.607259 1.896203
14.926909 14.912592 2.8841257
16.995731 13.612205 1.8925928
19.49766 13.729591 1.1083611
22.461739 13.427656 0.84488207
25.115061 13.437511 1.3866471
-24.332695 15.379103 1.9604177
-22.955776 16.645563 1.3967589
-15.202043 15.280799 0.19627371
-13.34998 16.411314 1.4748847
-11.901785 17.66839 2.8363693
14.591509 16.694946 2.1064806
16.372913 16.417938 0.6848346
19.425522 16.457331 1.326189
22.62627 16.408459 1.5932136
24.43433 15.330555 1.7220731
-21.984377 19.580927 1.523561
-20.807779 20.892538 2.8362648
-12.919943 19.593119 1.4324944
-11.743855 19.449009 2.765862
14.729676 18.479809 2.1986609
16.4422 19.25461 1.6684687
19.515207 19.535635 1.8216114
22.28002 19.416204 1.6592289
-21.223375 21.208977 0.94032073
-19.627222 22.393988 1.5614542
-15.744974 22.721731 0.3576037
-13.461015 22.402811 1.5088207
-11.817038 23.089678 2.6988206
17.540001 23.568012 2.8317041
19.515959 22.551437 2.5549452
21.128904 21.072731 2.714448
-18.819315 25.518753 1.5109677
-15.272474 24.62768 0.16299537
-13.384685 25.529125 1.2804012
-11.80238 24.666069 2.6446075
17.002691 25.706972 2.7033594
19.259251 25.357548 2.3900154
-18.258738 27.45274 1.5512061
-16.622789 28.928143 1.4915148
-13.719039 28.586254 1.4347936
16.784256 27.612701 2.7201684
18.568043 27.361324 2.6919177
-6.7984586 32.622341 2.5948114
-4.3856072 32.57056 2.6700673
-2.6670232 32.691673 2.8553889
-7.0931735 34.461075 2.094408
-4.5785589 34.516819 1.921227
-1.5657471 34.560581 2.2663851
1.4705043 34.924461 2.721885
4.5051451 35.126175 2.7422905
7.2837105 34.850563 2.8519509
9.0355453 34.268913 2.9905901
-4.2539883 36.184093 2.370146
-1.7020413 36.230934 2.4816375
2.7194805 36.181141 2.8538184
4.4212813 36.246632 2.8242369
6.2734184 36.077126 2.9414632
16.812868 -12.640209 3.2820506
29.124765 -13.065082 3.9890699
30.035946 -12.085445 4.9283667
16.519583 -10.365749 3.5578616
29.619225 -10.590936 4.0557766
30.457283 -9.9273758 5.2533073
15.991191 -7.3954678 3.934622
29.594799 -8.0651159 3.742054
31.264259 -7.2878976 4.8886013
14.748498 -3.9763505 5.2575469
15.557009 -4.6097841 3.9922779
31.921398 -4.4705529 4.5602727
-15.02944 -0.3826018 3.0635684
-14.972292 -0.30103028 3.1921871
14.511884 -1.449587 5.2275004
15.611615 -1.4448547 3.6826584
29.381607 -0.41705665 5.027535
31.206049 -1.7421658 4.43751
-15.019876 0.19642048 3.0324416
-14.74984 1.8430908 3.4334502
14.385729 1.5483235 5.117548
16.340233 1.5184606 3.5918987
28.810987 1.3773966 4.4340172
30.274555 0.23379578 3.2750545
-30.262733 5.8896809 3.0527308
-29.930065 5.9629889 3.0253539
-14.437003 4.6483979 3.860568
14.256821 4.5673075 5.1280656
15.792357 4.4248776 3.7401278
28.555115 4.4952698 4.4422402
-30.156687 6.4458389 3.2178416
-29.026421 7.7548733 3.3983886
-13.922528 7.6516452 4.3025241
14.112726 7.5165896 5.1515679
15.660201 7.4582992 3.81253
26.782822 8.6027164 5.528904
27.941166 7.5171371 4.3903632
-27.69227 10.489478 3.8857372
-26.755505 11.61382 3.4280801
-13.237996 10.515469 4.4866362
-11.98573 11.843578 5.81987
13.946056 10.613449 5.0735879
15.729749 10.505246 3.4468153
25.475605 10.423288 4.5721416
27.518719 9.41469 3.5786629
-27.12863 12.217825 4.9362917
-25.780716 13.511037 4.3347421
-12.640403 13.214802 4.0132313
-11.591749 13.87882 5.3364763
11.834515 14.299838 5.8787794
13.554067 13.497101 4.829484
15.798682 13.178583 3.3195119
23.39558 14.496016 5.2456346
24.823513 13.440863 4.3547893
-24.503805 15.785479 4.5098867
-23.534451 17.242046 4.447361
-12.23482 15.68406 3.3791816
-11.21877 16.614246 4.7385554
11.809379 16.349453 5.8627667
13.309319 16.46583 4.5154138
22.974089 16.468981 4.4549999
24.219391 15.156982 3.3316596
-22.249283 19.520533 4.4739571
-20.756115 20.774389 3.4457068
-10.562549 19.546839 4.4983549
-8.8978281 20.904474 5.9224849
11.715773 19.543205 5.77846
13.517934 19.449989 4.5794387
16.154743 20.271797 3.5295024
20.644745 20.878653 4.8622055
22.371906 19.721552 4.4760852
-21.265692 21.384928 5.2224336
-19.854588 22.675383 4.4306774
-10.46438 22.474386 4.4110365
-8.660531 21.818422 5.8205442
11.757729 21.550026 5.8634863
13.419946 22.45558 4.5567312
16.418018 22.349585 3.4248841
20.205992 22.38155 4.2241874
21.126749 21.107826 3.5448344
-18.827536 25.537813 4.5169716
-12.486357 26.414038 4.7259407
-10.963803 25.147257 4.8517795
-6.4262781 26.667105 5.9211149
-4.4156647 26.209393 5.7469726
-1.6000087 26.350986 5.677752
1.1779263 26.501068 5.7720284
3.4910893 26.805988 5.9478674
13.959264 25.484869 4.5509729
15.668109 25.121803 3.24193
19.903685 25.606853 4.5217624
-18.260529 27.315348 4.1149774
-16.680698 28.447876 4.4604907
-13.790033 28.14732 4.2036753
-6.4952312 28.77183 5.554656
-4.5558228 28.518877 4.934474
-1.5032399 28.505121 5.2150435
1.4995859 28.504105 5.4685917
4.4498024 28.492178 5.3440971
6.8223748 28.999166 5.4690785
14.747368 27.356991 4.8283906
16.390373 28.122498 4.4540534
18.668983 27.466187 4.3872085
-7.1388383 31.642176 4.5101361
-4.5541716 31.106928 3.7126904
-1.3662953 31.450825 4.1404805
1.3975309 31.593658 5.1578341
4.5284433 31.522387 4.4857864
7.5843377 31.538815 4.7080064
9.2718573 32.453403 5.0687628
-7.2139001 34.34536 4.3710217
-4.6272249 35.532234 4.6396475
-1.3257395 35.178989 4.5959888
1.4528308 34.510403 4.1278934
4.4455962 34.47871 4.2860932
7.7653193 34.877815 4.3164868
9.3915138 34.060509 4.3381104
-3.6131182 36.099602 3.4081585
-1.8619859 36.12138 3.3768392
2.593972 36.20327 3.6511953
4.5142426 36.29958 3.9528246
6.687953 36.160297 3.7350912
31.539619 -9.3557491 6.1140962
32.187531 -7.1922998 6.456562
32.682865 -4.3723755 6.8861871
13.851119 -0.87861037 6.2482762
29.89893 -0.19327185 6.6663871
32.262897 -1.3038906 7.1530318
13.478409 1.6639163 6.5458446
29.105131 2.0061185 6.9161639
31.366249 1.3531891 7.6863432
13.01155 4.6149802 6.8868446
28.354584 4.5791717 7.6755662
30.577389 4.1771293 8.256753
11.540588 8.0988493 8.1537008
12.677131 7.4439859 6.8877077
26.609749 8.4508114 7.6213665
27.449059 6.9292717 7.5092592
-12.312982 10.373121 6.2120485
-11.86701 11.617326 6.5120239
11.041107 10.637203 7.8908129
12.470991 10.307588 6.4572468
25.647432 10.518694 7.4409413
-25.237537 14.773727 6.0788927
-10.747194 13.528178 6.8115277
8.7131338 14.676894 8.8250036
10.424178 13.496331 7.4853115
12.22123 12.644052 6.2032261
23.649664 14.370972 7.2360659
24.501505 12.931713 7.5920329
-24.455791 15.770391 6.2826557
-23.480803 17.259401 6.5552611
-9.8052473 16.299717 6.8288765
-7.8732338 16.956671 8.0015583
8.2474117 16.591312 8.4899721
10.479111 16.508255 6.9990888
12.279762 16.287498 6.3621678
22.878265 16.467934 7.4901423
-22.335531 19.687922 6.9213185
-9.6148806 19.114971 6.3459544
-7.531796 19.482313 7.3843365
-4.6578388 19.824877 8.2169905
-1.8235629 20.426558 8.5447826
1.8311708 20.47541 8.7122917
4.5525246 19.890099 8.4145517
7.5778155 19.51129 7.8927226
10.440848 19.380959 6.8721457
20.771624 20.71735 7.7903152
21.855053 19.296553 7.413568
-21.340641 21.505486 7.209908
-20.131104 22.999252 7.4441471
-9.09727 23.610849 6.0622935
-7.3618431 22.514351 6.4347963
-4.4906807 22.511219 6.9908347
-1.4828329 22.534632 7.3917685
1.4503154 22.583305 7.580442
4.5040898 22.557888 7.7443662
7.4839678 22.606691 7.7500348
10.433765 22.562 6.9234815
12.282184 23.466101 6.2347684
20.090639 22.422049 7.5000687
-18.607767 25.08275 7.3357506
-16.995436 26.48283 7.9715004
-13.085591 26.87735 6.2160358
-10.211961 26.224962 6.412971
-7.6021409 25.424669 6.3034253
-4.6300144 24.706707 6.3936377
-1.3678991 24.925875 6.3171878
1.6311775 25.070724 6.6846523
4.5290031 25.343742 6.877316
7.401485 25.400856 7.2672892
10.481401 25.403315 7.7748742
13.412277 25.626135 7.4370794
16.550423 26.751163 8.5110159
19.19742 25.569321 7.4986429
-16.287001 27.453377 6.9279346
-13.544714 27.385633 7.5623274
-10.17577 28.006699 7.8155022
-7.8796329 28.659283 6.638855
5.4686375 27.117916 6.0656023
7.8944159 28.459106 7.2638011
9.6826754 27.87714 8.4416647
14.79416 27.241533 6.4239984
16.547626 27.518953 7.0729532
18.253277 27.210999 6.5219455
-18.225849 32.944588 8.3489819
-16.652363 32.002396 7.8833065
-12.85208 32.126343 7.9074788
-11.91849 32.839809 8.6322298
-7.2909598 31.303867 7.5072474
-5.8258133 32.919106 8.8935328
-0.29881048 32.892029 8.5764179
0.64496559 32.536659 7.6042504
8.7160597 31.218416 7.4641085
9.2115402 32.116859 7.0278101
16.176975 30.719872 8.8706713
-18.358856 34.568039 8.192564
-16.208359 34.436417 7.964747
-13.736129 34.279644 8.0864096
-11.788734 34.199875 8.4500628
-6.6112604 33.629395 6.9324369
-4.5266409 34.100986 7.5351105
-1.5651793 34.15881 7.4884953
1.9537483 34.150982 7.4912329
4.4704995 34.698528 7.5513887
7.4530659 34.086681 7.3982406
9.1836185 33.310593 6.4339609
-18.047777 36.101238 8.412406
-16.285521 36.871334 8.4330921
-14.051989 36.824142 8.5844021
-11.976589 36.105465 8.7919645
31.52706 2.1771827 9.1997013
29.08927 5.8130617 9.5145016
30.564856 4.4486227 9.4437714
26.368311 8.301754 9.8025064
28.39773 7.2874722 9.7997437
8.9566755 11.948796 9.3636274
9.7087355 11.252408 9.1460743
25.640554 10.575078 10.21561
27.498665 9.7982368 10.77537
8.2492094 14.06529 9.4916382
9.0915012 12.998469 9.1299791
23.585512 14.175575 10.596339
24.426706 12.839793 10.033558
-6.1695065 17.561392 9.0668945
-5.6553016 17.859438 9.211483
2.8836541 17.986609 10.348053
4.9741745 17.528248 10.11183
6.8512349 16.453106 9.5212393
22.761501 16.489594 10.503175
-4.1148052 18.53076 9.2964725
-1.3871711 19.440197 9.5414953
1.5207458 19.286282 9.6390858
4.3502345 18.533201 9.5171394
6.3953509 18.390919 9.1975088
20.698046 20.643162 10.625154
21.697369 19.206125 10.462111
-19.522844 23.659609 9.1460457
19.541672 22.490461 10.58464
-18.545513 24.869799 9.3720608
-16.665655 26.34918 9.7183361
-14.978707 26.986322 10.515562
11.511878 26.742563 10.23668
13.497874 26.436098 10.400414
16.747261 25.592577 10.509523
18.553925 24.808573 9.9390678
-15.395155 27.098721 9.6309376
-13.332117 27.789959 10.407105
-10.360231 28.242596 10.348693
-8.601531 29.632572 10.972144
8.7975225 29.769392 10.754414
10.155366 28.423626 10.467155
14.883231 29.774677 11.547497
16.249968 29.128777 10.596891
19.542656 28.976635 10.884697
-18.379927 32.277706 10.787853
-16.968134 31.649033 10.250569
-12.840412 31.787094 10.341949
-11.98565 32.934441 9.536809
-7.1948576 30.896162 10.316465
-4.6543303 32.199768 10.664685
-1.4393926 32.434479 10.720195
1.3882669 32.522255 10.607175
4.5460429 32.474072 11.028514
7.4980993 31.617348 10.614273
9.1305151 30.118238 10.069613
14.574204 31.571165 10.900187
16.472157 31.294497 10.332972
19.264637 31.272205 10.744432
21.39542 32.09531 11.45029
-18.515839 34.646317 10.354432
-16.156439 34.621601 9.8010845
-13.243603 34.645454 10.436291
-11.902447 34.30109 9.9024858
-3.9024048 33.169712 9.2875366
-2.2502403 33.196735 9.3025885
2.4644198 33.307438 9.3950949
4.435204 33.440754 9.6298065
6.6383834 33.225677 9.3916874
14.768581 33.473946 11.071864
16.927645 33.617443 10.891
18.874449 33.588173 11.172533
21.289417 33.249039 11.623819
-18.035942 36.072464 10.323653
-16.509033 37.12215 10.40484
-13.557616 37.192764 10.490849
22.066748 17.117943 12.199536
20.368544 19.931311 12.493867
21.413496 18.650841 12.267225
17.871456 23.70274 13.323555
19.027542 22.52607 12.711934
11.162214 26.637135 12.949265
12.642503 26.427162 12.702717
17.070841 24.613438 12.920817
18.053083 24.074308 12.175239
-8.0019979 29.687475 12.168692
8.4391699 29.414593 13.153817
9.7241049 27.964125 12.94256
14.74889 29.176233 13.034518
16.615005 28.643162 12.742741
19.766256 28.624853 13.520603
-12.376876 32.418842 12.28334
-6.7258306 30.457979 12.312778
-4.3230972 31.298008 12.575621
-1.4998186 31.786453 12.815459
1.5621879 32.116631 13.063635
4.5495358 32.15617 13.249843
7.3538828 31.327047 13.634548
9.2509747 30.969734 14.588511
14.238298 31.716036 13.412778
16.332808 32.1698 12.711073
20.026686 31.649813 13.401591
21.126883 31.313211 13.227489
-18.453886 35.175705 12.2815
-17.961018 35.977482 12.619425
-12.429996 34.75655 12.590849
-11.990696 33.901951 12.208374
14.759526 33.324131 12.952249
16.855299 33.306828 12.527341
19.085043 33.20948 12.412328
21.112053 33.147411 12.262847
-16.348856 36.830921 12.637627
-13.848599 36.779362 12.704605
20.531857 29.178444 15.279514
14.230817 32.180515 15.295442
20.710392 31.447182 15.547335
0 0 0 1 0 0 0 1 0 0 0 1 0 0 0 0 0 669 1 0 0
