ply
format ascii 1.0
comment PCL generated
element vertex 1503
property float x
property float y
property float z
element camera 0
property float view_px
property float view_py
property float view_pz
property float x_axisx
property float x_axisy
property float x_axisz
property float y_axisx
property float y_axisy
property float y_axisz
property float z_axisx
property float z_axisy
property float z_axisz
property float focal
property float scalex
property float scaley
property float centerx
property float centery
property int viewportx
property int viewporty
property float k1
property float k2
end_header
-25.524797 -11.746347 -6.1250048
-25.731785 -11.802732 -5.9160962
10.286726 37.536942 -17.605343
10.233718 37.343521 -17.506626
10.252481 37.430729 -17.766356
-24.175453 -10.867826 -7.8294911
-28.360222 -12.306943 -4.1317959
-22.516628 39.075966 -20.919178
-22.535288 39.022137 -21.085308
-4.9920983 -12.355098 -27.184608
-4.9642172 -12.215188 -27.266916
-5.1635756 -12.324493 -27.189316
6.0432658 -13.02289 -26.970444
5.9811282 -12.983083 -27.105373
5.8533773 -12.913713 -27.003307
5.974627 -12.957559 -27.230337
6.1084814 -13.028181 -27.218357
6.0890651 -13.004498 -27.335821
-25.788523 -11.938068 -5.6668081
-25.7251 -11.869951 -5.7859678
-30.214121 -11.43191 -4.7197852
-32.014652 -11.097565 -3.7019858
-31.908598 -11.135036 -3.7796757
6.1166272 -13.045015 -27.098797
6.2150455 -13.04224 -27.282993
6.2250915 -13.055882 -27.197577
5.1490884 -12.825714 -26.960459
5.0947175 -12.895723 -26.85116
5.2224898 -12.878487 -26.940046
6.8550658 -13.232697 -26.057106
6.9656234 -13.159058 -26.111195
6.7278514 -13.211384 -26.102636
6.5426197 -13.374861 -26.000418
-12.342084 -11.207055 -28.094706
-12.446221 -11.20174 -28.257206
-12.47707 -11.330384 -28.243052
-1.1037569 -13.090662 -26.056923
-0.79958862 -13.023696 -26.142515
-0.84579098 -12.955936 -26.35396
7.6379514 -13.1674 -26.073059
7.6259274 -13.086477 -26.245626
7.5422578 -13.113358 -26.116703
6.6622519 -13.461446 -25.936113
6.7510085 -13.547195 -25.794483
6.801681 -13.513676 -25.922459
9.5442009 -13.570635 -25.883678
9.5729713 -13.613573 -25.733356
9.7383556 -13.459681 -25.974619
13.433454 -13.59227 -25.881672
13.486032 -13.661616 -25.556421
13.359488 -13.66801 -25.62188
13.366124 -13.692647 -25.496407
13.344422 -13.629565 -25.801794
13.300153 -13.571519 -25.942204
13.42486 -13.493958 -25.980225
4.9442925 -13.496635 -25.671526
4.846787 -13.515114 -25.655174
4.9194951 -13.513924 -25.573668
4.8637023 -13.476933 -25.799862
10.465224 38.210155 -18.798988
5.0504556 -13.516685 -25.755175
-0.32333937 -13.067282 -26.080797
-0.1449019 -13.026411 -26.176834
-0.22693625 -12.957756 -26.408569
4.490912 -12.520912 -27.136822
4.5310054 -12.431 -27.274574
4.42487 -12.406555 -27.292614
4.7325988 -12.391884 -27.301485
2.8950889 -12.248173 -27.366072
2.7821486 -12.310188 -27.32435
2.901901 -12.29999 -27.266693
10.401391 38.089085 -18.562756
-10.711075 -12.592225 -26.745935
-10.688982 -12.489961 -26.886572
-10.79408 -12.53003 -26.874399
0.029101653 -11.804185 -27.810648
0.011912392 -11.973364 -27.597927
0.39683083 -11.848919 -27.705189
-3.9265547 -13.348151 -25.383791
-3.8629718 -13.317101 -25.173101
-3.7938995 -13.363056 -25.360796
0.39070222 -13.041411 -26.107416
0.46778524 -12.999324 -26.270067
0.34592852 -12.945923 -26.365032
1.6259369 -13.25943 -25.896288
1.5335792 -13.072382 -26.07914
1.3945078 -13.113213 -26.032276
13.056487 -13.176694 -26.235525
13.016463 -13.159114 -26.360176
4.8173599 -13.395652 -25.96649
4.7230086 -13.412449 -25.962318
4.9685435 -13.422744 -25.938545
5.1429362 -13.506489 -25.840591
-10.966778 -13.197927 -24.72481
-10.950374 -13.195161 -24.528524
-10.874066 -13.210993 -24.494856
-10.659654 -13.196442 -24.725618
-8.1770916 -11.386407 -28.368738
-8.1902075 -11.249008 -28.465389
-8.2913094 -11.340549 -28.419794
-14.051467 -13.019341 -25.878588
-13.998765 -12.961144 -25.915342
-13.896195 -13.026811 -25.849245
-13.777324 -13.018941 -25.862232
10.095397 -13.061314 -27.198257
10.061122 -13.071896 -27.114769
10.178091 -13.053503 -27.074257
9.9703598 -13.063107 -27.191748
9.7830429 -13.033642 -27.053526
9.8189211 -13.077923 -27.289965
9.6764517 -13.090675 -27.251776
10.482183 38.271206 -18.671146
10.474602 38.224735 -18.54454
9.6281767 -13.057606 -27.09889
9.5330648 -13.082005 -27.242907
9.4918098 -13.059492 -27.026382
-31.751549 -11.086765 -3.8105109
-31.507769 -11.11039 -3.9112055
-31.211521 -10.884424 -3.8850505
-31.433691 -11.207225 -3.9906073
-30.988613 -11.243307 -4.2384024
-30.836576 -11.223287 -4.3283048
13.876588 40.513973 -18.532831
14.044611 40.554573 -18.309259
14.170312 40.525887 -18.486408
13.028401 40.444542 -18.406378
13.088295 40.449577 -18.310625
13.23688 40.52264 -18.303049
13.126031 40.498295 -18.055487
13.002003 40.48806 -17.921978
12.713 40.358112 -18.026316
12.361334 40.210655 -17.514566
12.259704 40.149452 -17.530434
12.431145 40.272453 -17.409096
12.549544 40.346428 -17.500557
12.627889 40.342159 -17.903189
12.255595 40.220253 -17.982853
12.186033 40.149681 -18.104322
12.131217 40.113564 -17.598227
12.156441 40.09964 -17.469164
12.005216 40.053844 -17.655418
-30.513689 -10.533882 -4.0858755
-30.709187 -11.224595 -4.3982873
8.826601 -13.035751 -27.032946
8.6959085 -13.051983 -27.097071
8.6263065 -13.042393 -26.980663
9.3968048 -13.044315 -27.099895
9.407649 -13.055119 -27.227272
9.2579927 -13.044502 -27.157877
-31.193789 -11.191793 -4.1003418
-31.098705 -11.216403 -4.1570783
12.311955 40.167816 -18.390196
12.264084 40.149738 -18.25491
12.603865 40.319668 -18.04068
12.712716 40.402454 -17.810036
12.796979 40.432499 -17.710949
12.968381 40.436115 -17.689682
12.656636 40.409027 -17.643858
-30.265522 -11.285986 -4.640563
-30.106672 -11.405199 -4.7520428
-29.899971 -11.306398 -4.7606249
-30.423496 -11.2089 -4.5368605
16.808929 38.868565 -25.201036
16.994581 38.420288 -25.02495
17.013052 38.466679 -23.544727
16.971687 38.458965 -23.182598
17.063086 38.336514 -23.111786
17.169167 38.093063 -23.236525
17.105574 38.225082 -23.522543
15.699748 39.804451 -23.564835
15.460335 39.999176 -23.52957
15.625593 39.881775 -23.680969
16.003342 39.655827 -24.139498
15.769557 39.793495 -23.691998
15.716168 39.846352 -23.806242
-29.695892 -11.378201 -4.9153633
15.947023 39.681927 -23.542288
15.985543 39.663651 -24.301565
16.034565 39.591084 -24.44257
15.723648 39.848736 -24.587742
9.2737904 -13.049099 -27.309017
9.1062365 -13.054314 -27.302919
9.1266613 -13.043953 -27.128561
16.28821 39.406185 -22.898163
16.253756 39.451797 -23.040098
16.165926 39.513855 -22.909786
16.118357 39.515041 -23.269382
16.004679 39.602669 -23.235975
16.304241 39.364105 -23.377064
8.9887524 -13.036139 -27.109335
8.9452219 -13.052345 -27.309872
-28.950516 -10.41541 -4.3515162
-29.081959 -10.40048 -4.2925649
8.8209276 -13.036627 -27.233475
-29.508736 -11.469067 -5.0911899
-29.283775 -11.326445 -5.0766892
15.647792 39.845234 -24.157927
15.488929 39.920429 -23.964788
15.413666 39.942028 -23.844376
15.473108 39.929722 -23.738453
15.921949 39.673882 -25.068617
15.706127 39.860821 -24.772892
-29.955721 -11.488779 -4.8660679
16.03433 39.575108 -23.813036
16.098934 39.537437 -23.916283
15.838785 39.749386 -23.861786
-29.39835 -11.512537 -5.2152257
16.225176 39.451935 -23.717934
16.273888 39.400661 -23.875298
16.218136 39.426422 -24.123535
16.078054 39.583504 -24.278244
16.428583 39.256031 -24.043001
-29.146988 -11.278547 -5.1223245
-29.033463 -11.128798 -5.0592828
16.03726 39.617287 -23.531816
16.786955 38.833282 -23.243708
16.654684 38.982002 -23.253817
16.754379 38.844963 -23.10417
16.360691 39.323376 -23.015757
16.456467 39.2435 -23.290268
16.565674 39.134148 -23.517246
16.546991 39.112911 -23.856552
16.674356 39.022957 -23.771788
16.395256 39.253586 -23.592537
16.408792 39.232536 -23.779993
16.551327 39.136909 -23.293499
8.91716 -13.030754 -26.996365
8.6684008 -13.046928 -27.205202
8.540062 -13.031483 -27.200018
8.4898558 -13.007792 -26.948147
8.3709173 -13.007687 -27.199995
8.1986666 -13.032358 -27.088547
8.3166056 -13.045017 -26.897949
8.1398582 -13.00762 -27.273504
7.9992576 -13.023235 -27.326078
8.2338333 -13.012857 -27.220161
6.8706517 -13.019131 -27.158327
7.0314345 -13.024618 -27.360323
6.873632 -13.037741 -27.405643
16.004631 39.653191 -23.386847
6.7597499 -13.022205 -27.235514
6.7534242 -13.023151 -27.366993
6.6414342 -13.007685 -27.401108
7.1542888 -13.014164 -27.116468
6.9686971 -13.015602 -27.051332
7.198772 -13.018936 -27.316982
16.282494 39.373951 -24.251028
7.3511796 -13.006868 -27.282423
17.246363 37.766727 -23.000048
17.190409 37.909279 -23.027292
17.239759 37.858589 -22.904242
17.212301 37.810543 -23.182039
17.276066 37.583714 -23.398249
17.310101 37.576931 -23.135118
-29.096304 -11.316658 -5.2326388
-28.929399 -11.208297 -5.2963572
-29.015013 -11.358783 -5.4133563
15.363856 39.998722 -23.682285
-28.752962 -11.320239 -5.6163354
-28.677605 -11.083572 -5.3868132
17.018881 38.411011 -21.745417
16.913481 38.519268 -21.747665
16.975525 38.464241 -21.62114
17.02289 38.371376 -22.007568
-28.62142 -11.24591 -5.6959066
17.005661 38.469986 -22.107697
-28.54244 -11.293554 -5.7966409
-28.431055 -11.126063 -5.8797903
-28.39743 -11.014162 -5.7593765
11.991001 39.774967 -25.125456
11.879954 39.647831 -24.977377
11.904185 39.697285 -24.826067
11.87476 39.655235 -25.32914
11.753196 39.519199 -25.32304
15.420531 39.987144 -22.424824
15.557452 39.938602 -22.628372
15.493232 39.981377 -22.175268
15.807545 39.784302 -22.088217
15.426318 40.0345 -22.675257
7.3063045 -13.005018 -27.081127
7.4435611 -13.006056 -27.247988
7.4559646 -13.00087 -27.057329
11.121214 38.949188 -24.772192
7.5760083 -13.006927 -27.238455
16.218729 39.542336 -21.66482
16.090544 39.59959 -21.693214
14.67336 40.311333 -21.918362
14.45819 40.392059 -21.59613
14.718782 40.27914 -21.598078
14.38841 40.399014 -21.718464
14.344254 40.360733 -21.913557
-28.307938 -11.088008 -5.9917755
16.175217 39.566944 -20.904724
16.254972 39.53669 -20.761557
7.6359611 -12.992115 -26.950857
7.7179246 -13.010357 -27.263494
15.436143 40.103233 -21.172159
7.8611932 -13.007008 -27.285837
14.972333 40.233047 -21.231096
15.159196 40.14344 -21.413294
15.000609 40.236866 -21.534283
7.8314929 -13.007273 -26.965523
8.0999098 -13.063002 -26.644663
15.153215 40.152763 -21.28842
15.102227 40.236092 -20.996519
15.224237 40.180462 -21.053911
15.326975 40.059738 -21.653049
15.224259 40.139645 -21.704649
14.959579 40.252728 -21.063425
7.7344165 -13.041679 -26.805571
8.1797686 -13.094669 -26.243544
8.2260532 -13.121601 -26.129112
8.3776941 -13.113491 -26.143152
8.1394482 -13.059521 -26.443745
8.027276 -13.064697 -26.446453
15.46979 40.070576 -20.43869
7.7444568 -13.062195 -26.63505
16.630295 39.131821 -19.850363
16.5935 39.140347 -19.679789
7.7782607 -13.069521 -26.461475
7.7861614 -13.087484 -26.270208
7.9501147 -13.127084 -26.127472
15.363168 40.074646 -20.087626
15.117889 40.234261 -20.287317
15.101869 40.261143 -20.154985
15.208652 40.182369 -19.90914
15.00334 40.293217 -20.011818
7.7852516 -13.124249 -26.11898
15.344734 40.150017 -19.880438
15.497805 40.052979 -19.885893
17.081333 38.279636 -19.682522
17.035358 38.402168 -19.461508
17.103746 38.277527 -19.539177
16.907887 38.548916 -19.49262
-29.654358 -11.586899 -5.0795417
16.982832 38.476139 -19.372026
16.936316 38.647148 -19.151562
16.986504 38.498734 -19.153099
-29.230646 -11.393486 -5.2390394
16.791815 38.838482 -18.334768
16.923243 38.718147 -18.329529
16.867123 38.777786 -18.199141
16.459349 39.329151 -17.750999
16.564615 39.26458 -17.634857
-28.884325 -11.450872 -5.5820732
-29.028 -11.465787 -5.4918942
-29.134663 -11.429747 -5.3784118
16.389965 39.431149 -17.368586
16.270708 39.51355 -17.625809
-29.134563 -11.541739 -5.4312863
16.732668 39.046127 -17.950123
-29.250616 -11.555122 -5.3330421
-29.368629 -11.63061 -5.2726183
-29.465776 -11.637299 -5.2091026
-29.528334 -11.580076 -5.1573296
-29.571806 -11.685115 -5.1321754
16.815163 38.890251 -18.102167
16.745405 38.90704 -18.214676
-31.83563 -11.227965 -3.8017211
16.763128 38.885292 -18.482815
16.452654 39.379936 -18.199007
-4.9776769 -12.11647 -27.391951
10.676415 -13.091854 -27.406191
10.703124 -13.061396 -27.207825
10.885468 -13.058475 -27.230131
10.49156 -13.070787 -27.052999
10.557933 -13.070827 -27.027401
10.784758 -13.064095 -27.157753
10.936927 -13.047935 -27.122992
11.066986 -12.996335 -27.18421
-35.923153 -12.87406 -9.0487385
-23.867054 -11.323387 -7.6623998
16.861782 38.765404 -18.070494
16.822412 38.861736 -17.956684
-28.491497 -12.38895 -4.1026936
16.864529 38.687855 -17.96192
16.831869 38.786655 -17.832703
11.223091 39.250641 -21.867344
11.186787 39.243778 -21.737823
11.118868 39.144836 -21.496784
-28.687145 -11.399505 -5.7257957
11.184631 39.24353 -21.600691
16.605116 39.133606 -19.534334
16.23196 39.576679 -19.287725
16.297348 39.477047 -19.057749
16.413958 39.345882 -19.314537
16.403625 39.369572 -19.139271
16.162323 39.675213 -18.783262
-28.011869 -11.510604 -6.0727024
-28.006353 -11.241282 -6.1047721
-28.113396 -11.329763 -6.0134578
16.402161 39.412884 -18.793167
16.466888 39.312832 -18.732941
-27.765713 -11.316583 -6.3008485
-27.918468 -11.469452 -6.1471
-27.94986 -11.120652 -6.180831
-27.810356 -11.110888 -6.2959499
16.431093 39.320545 -19.447548
-27.555376 -11.048042 -6.5398941
-27.577074 -11.463837 -6.4867053
-28.22859 -11.385077 -5.939486
16.409555 39.373253 -19.547722
-27.406986 -10.993464 -6.7078919
-27.426552 -11.408834 -6.6879272
11.070719 -12.99849 -26.980909
-8.5495338 -12.075342 -27.337429
-8.6393394 -12.045863 -27.330233
-8.5924416 -12.202648 -27.183109
5.4414306 -13.492119 -25.852001
5.3865929 -13.417645 -25.948914
5.2961841 -13.493839 -25.852573
5.244813 -13.414343 -25.949629
16.14168 39.641949 -19.210205
16.320658 39.531811 -18.679277
16.190208 39.659657 -18.624887
16.274389 39.588352 -18.541954
16.036781 39.788731 -18.976524
-27.251591 -11.380317 -6.9394093
16.078024 39.74736 -18.349979
16.26074 39.547783 -18.245296
16.068111 39.724575 -18.507366
16.077793 39.713417 -17.593204
16.124571 39.625271 -17.376404
16.266945 39.573223 -17.16416
11.625772 39.668541 -20.776089
12.058659 39.911232 -20.989166
5.1071377 -13.404112 -25.970034
17.071049 38.133926 -17.161959
17.179878 37.845245 -17.298521
11.457173 -13.474318 -25.969894
11.472677 -13.579082 -25.878067
11.619112 -13.555713 -25.934353
11.226979 -13.510657 -25.942013
11.180123 -13.602958 -25.778341
11.348937 -13.592967 -25.757313
8.484436 -13.25384 -25.977646
8.3497734 -13.471855 -25.863268
8.4787951 -13.48448 -25.860579
1.759252 -12.517254 -27.116034
1.8336114 -12.41283 -27.216646
1.714837 -12.385254 -27.204554
5.9432921 -12.870659 -27.320007
-22.677746 38.796322 -21.119619
-22.761742 38.537445 -21.136921
-12.424992 -11.025881 -28.481091
-12.564156 -10.948608 -28.603987
-12.613926 -11.097915 -28.593924
-12.313097 -10.964312 -28.483103
-9.5572872 -10.93819 -28.497562
-9.4093666 -11.00541 -28.408215
-12.63897 -10.87653 -28.691017
-12.66866 -11.02354 -28.696768
-12.788193 -10.921836 -29.388046
-22.600908 38.878487 -21.390686
-22.664139 38.779522 -21.385897
-22.703024 38.715225 -21.255154
-22.794703 38.391373 -20.930698
-12.724126 -11.122987 -28.809546
17.266226 37.444824 -18.766838
17.242113 37.486614 -18.449356
17.236122 37.447403 -18.597834
-22.719591 38.524002 -21.52338
17.270708 37.51284 -18.223888
17.259907 37.561314 -18.078552
-28.289431 -11.629548 -5.8697181
-28.065105 -10.968231 -6.1970382
17.11586 38.17514 -18.180027
17.209772 37.548199 -17.746758
17.25345 37.318344 -17.978205
-22.608301 38.726105 -21.849194
-22.632494 38.794136 -21.545382
-12.671955 -11.190938 -28.645548
-12.576889 -11.215569 -28.503712
16.984812 38.505642 -16.63151
17.038792 38.411488 -16.706383
-28.224888 -11.268829 -5.9736133
-28.12421 -11.223738 -6.037704
-28.345839 -11.202545 -5.9676161
-28.436907 -11.368298 -5.8400145
16.907444 38.629559 -16.554834
-12.489653 -11.136999 -28.424555
16.986641 38.608513 -16.843723
-12.535601 -11.311446 -28.387823
-22.812876 38.297169 -21.884258
-22.838993 38.145256 -21.677111
-28.437744 -11.251957 -5.8965826
-28.227894 -11.162877 -6.036272
-28.051149 -11.04848 -6.1779065
-28.18004 -11.032946 -6.0968657
17.294115 37.212517 -18.508101
17.059647 38.295067 -17.213984
-24.618992 -12.370216 -7.0706
-24.520065 -12.308791 -7.129272
-24.012152 -11.862035 -7.3942266
-24.066902 -11.817449 -7.2343521
-23.983883 -11.857123 -7.5437489
-23.957771 -11.740314 -7.468946
-27.554052 -12.315551 -4.2086787
-27.723331 -12.318839 -4.1725736
-27.86636 -12.31766 -4.1622148
-27.994495 -12.313673 -4.1543822
-27.423948 -12.356427 -4.2397938
-28.105488 -12.296698 -4.1417069
-28.635424 -12.299576 -4.1304636
17.025658 38.430729 -17.265636
17.026684 38.439888 -17.091316
-28.227997 -12.355902 -4.1059642
16.982967 38.539211 -17.157326
-24.061504 -10.845568 -7.8742137
-24.015417 -10.801677 -8.0194845
-12.532525 -11.420072 -28.065348
-28.786762 -11.418604 -5.6532393
-29.789043 -11.7296 -4.9234362
-29.700134 -11.739918 -5.0494418
4.4039321 -11.553648 -28.577253
4.3067818 -11.645465 -28.520805
4.4091945 -11.703439 -28.454782
4.2418928 -11.534391 -28.585165
4.1764483 -11.630132 -28.522066
4.0399604 -11.537461 -28.570019
4.0405006 -11.654085 -28.498264
3.9099882 -11.644902 -28.487118
16.956293 38.472687 -17.405354
-23.967657 -11.417031 -7.5204191
3.7402611 -11.466023 -28.584921
3.6911883 -11.582797 -28.521208
3.771584 -11.64951 -28.452703
-9.3474398 -12.76228 -26.230053
-9.3636332 -12.846149 -26.059439
-9.2161856 -12.848494 -26.039413
-8.5738869 -11.799731 -27.519342
-8.5671358 -11.676037 -27.611803
-8.6852627 -11.647977 -27.687902
-8.1307278 -11.662652 -27.5888
-8.1219339 -11.700443 -27.525848
-8.0433197 -11.692743 -27.5509
-8.2592878 -11.660868 -27.557243
-10.252494 -12.713324 -26.435915
-10.546386 -12.767718 -26.183792
-10.270134 -12.804668 -26.15106
-10.707305 -12.701618 -26.350136
-10.266755 -12.642074 -26.673832
16.920723 38.584435 -17.264465
-24.296715 -10.987887 -7.5577769
-24.346529 -11.082707 -7.4639053
-24.210976 -11.084937 -7.4990854
-24.18556 -10.999844 -7.5983386
16.854534 38.755657 -17.173803
-27.216833 -12.320943 -4.3363729
16.207264 39.544445 -17.446308
-24.867487 -11.385643 -7.0082469
-10.449435 -12.618859 -26.703382
-29.006407 -12.321503 -4.0063777
-28.752897 -12.361558 -4.0734701
-24.145136 -10.917503 -7.6980104
-24.048843 -10.913824 -7.7530098
-23.958094 -10.91339 -7.8151784
-10.664354 -12.654494 -26.58824
-10.54922 -12.609997 -26.755486
-10.761651 -12.658558 -26.536118
-23.870876 -11.141617 -7.7526665
-23.836561 -11.080734 -7.8516154
-23.818737 -10.960854 -7.9735894
-23.9807 -11.024643 -7.7185383
-23.959702 -11.149448 -7.6628733
-24.080912 -11.001641 -7.6590385
-23.957376 -10.840848 -7.9132738
-23.887812 -10.824397 -8.0262814
-23.75123 -10.887847 -8.182147
10.827769 38.857231 -21.031805
-29.062057 -11.562263 -5.4828773
16.113325 39.614357 -16.698847
-24.452515 -11.160769 -7.3762264
-24.240131 -11.223373 -7.4706917
-24.417568 -11.38768 -7.3635955
11.008913 39.030697 -21.137589
-24.60969 -11.380435 -7.25629
-24.596584 -11.192507 -7.2547965
11.154377 39.303986 -20.116758
11.172461 39.309551 -20.285975
-24.662064 -11.253625 -7.2117348
-24.56489 -11.445386 -7.2698245
11.193568 39.292633 -19.805267
11.15043 39.265919 -19.959023
-24.42786 -11.573229 -7.3049598
11.19031 39.356388 -20.213417
4.0355496 37.61272 -16.891396
4.6192217 37.332081 -17.413029
4.3403578 37.322887 -17.585337
11.280668 39.382374 -19.134224
11.034742 39.19001 -19.125422
3.8253658 37.435459 -17.479568
11.275079 39.453819 -18.884998
-24.691139 -11.456701 -7.1321759
11.267524 39.380447 -19.021894
11.397079 39.56208 -18.977913
4.0896058 37.28788 -17.836998
11.358478 39.473644 -19.200756
11.433852 39.591751 -19.164127
3.5792339 37.387821 -17.766542
3.6841021 37.440479 -17.532696
11.396294 39.52306 -19.317713
12.772923 40.385529 -19.13563
12.933768 40.394188 -19.134962
12.856468 40.392879 -19.253666
12.808782 40.391186 -18.877056
12.993392 40.403023 -19.021246
13.062846 40.416962 -19.128149
13.03436 40.456947 -19.363279
-10.849512 -12.592636 -26.735352
13.327227 40.519695 -19.122963
13.431046 40.506035 -18.912802
13.704081 40.493931 -19.103239
13.240434 40.499626 -18.893559
13.179498 40.475895 -19.155882
12.69741 40.350994 -18.839987
12.380009 40.285988 -18.662621
12.270551 40.218456 -18.644945
12.153936 40.116531 -18.585705
3.0832369 37.599125 -17.456263
3.3186455 37.641575 -17.183651
12.031922 40.060894 -18.34766
3.7507157 37.250198 -18.1091
3.3313782 37.35709 -18.138464
11.648633 39.787426 -18.607576
12.958778 40.427486 -18.24868
11.706256 39.816879 -18.242943
11.761381 39.902122 -18.16485
12.018907 40.008327 -18.111876
3.353384 37.302982 -18.248579
3.0268493 37.244442 -18.627676
3.0146565 37.412571 -18.22592
12.0958 40.07172 -18.204779
11.986566 40.025108 -18.236359
3.0227129 37.462063 -18.105881
2.8945909 37.471386 -18.117693
11.891434 39.966873 -18.131697
-10.905376 -12.487846 -26.878536
-8.3127089 -12.546612 -26.916342
-8.1987705 -12.57118 -26.884954
-8.1134148 -12.508224 -26.929714
-8.3158884 -12.668127 -26.758307
26.96764 -10.656717 -6.3419113
-8.4338503 -12.624968 -26.793245
-8.4538412 -12.461409 -26.999519
-8.5985279 -12.608311 -26.879522
2.9103239 -12.935991 -26.398174
2.8254719 -12.963841 -26.255651
2.9441514 -13.005262 -26.216261
-13.695669 -13.076138 -25.782612
-13.542016 -13.067978 -25.803864
-12.709718 -13.062706 -25.875338
-12.749463 -13.117796 -25.761187
-12.602834 -13.104081 -25.805157
-12.841254 -13.066405 -25.855183
-12.935797 -13.127799 -25.659655
-12.986346 -13.067286 -25.836985
-13.037632 -13.111524 -25.723093
-13.583791 -13.099629 -25.688997
-13.449821 -13.097482 -25.679243
-13.401667 -13.053889 -25.803768
-13.303542 -13.089791 -25.682787
-13.258816 -13.049084 -25.806213
-13.065052 -12.977561 -25.941895
-13.214985 -12.973619 -25.931448
-13.162164 -13.097886 -25.695074
-13.346963 -12.966212 -25.916355
10.757937 38.715603 -17.478907
-12.91856 -12.973439 -25.939117
-12.789275 -12.970496 -25.946913
-12.625986 -12.966416 -25.934212
-12.503078 -13.003351 -25.906626
26.975758 -10.934342 -6.334455
26.856476 -10.990232 -6.4052958
26.744209 -11.064498 -6.4903884
10.869749 38.943714 -17.796213
26.192884 -10.949783 -6.8661842
10.948761 39.020992 -17.880991
11.033583 39.136391 -18.01899
-8.1332197 -13.010044 -25.981716
-8.3110905 -13.061753 -25.950399
-8.1754932 -13.138418 -25.873131
-0.78968692 -13.09276 -26.054642
-0.64369214 -13.288629 -25.871437
-0.54910195 -13.093506 -26.077888
-0.0063714469 -12.083473 -27.471016
-0.12173099 -12.104328 -27.496906
-0.016467039 -12.182003 -27.385023
11.828707 39.935932 -17.999575
26.284861 -11.181134 -6.8353839
-0.10264225 -12.011595 -27.600586
-0.03999158 -11.866428 -27.700859
-0.28068325 -11.78677 -27.853857
-0.083566263 -11.782698 -27.816374
-1.9830443 -13.373959 -25.431776
-2.2745352 -13.385981 -25.197803
-2.205617 -13.360477 -25.029753
-1.9378409 -13.375441 -25.71666
-2.0947683 -13.389237 -25.684835
0.39437008 -13.43607 -24.937698
0.52673668 -13.437697 -25.163908
0.22971258 -13.435374 -25.186018
-0.087144732 -13.423014 -25.484501
0.11736943 -13.390626 -25.638773
-0.036193818 -13.388084 -25.637959
-11.062385 -10.924727 -28.436026
-11.007231 -10.874272 -28.509129
-11.076254 -10.760318 -28.559984
-10.090418 -10.978479 -28.547806
-10.021996 -11.094601 -28.447178
-9.9471931 -11.004872 -28.527287
-10.144955 -11.080442 -28.464262
26.051817 -10.989427 -6.9831796
15.141948 40.10783 -25.312403
15.582841 39.913689 -25.114101
15.750273 39.788658 -25.239191
15.681332 39.83839 -25.315096
25.895737 -11.175488 -7.1360497
25.975214 -11.103119 -7.051158
16.433273 39.256512 -24.945076
16.499481 39.193443 -24.855068
16.765383 38.876938 -23.850292
16.875677 38.680882 -24.033525
16.76462 38.825668 -24.04355
26.472004 -11.155511 -6.701139
15.026506 40.131783 -25.24885
26.10751 -11.144805 -6.955153
16.832851 38.721527 -23.103155
16.907976 38.545547 -23.25322
16.892818 38.587212 -23.116829
-10.305047 -11.075152 -28.450609
25.796318 -11.211841 -7.2339091
16.832222 38.750885 -23.372505
16.903364 38.61528 -23.371916
16.858253 38.690514 -23.476433
25.591581 -11.168579 -7.4256144
25.684181 -11.250647 -7.3449097
16.794844 38.765881 -23.548382
17.133121 38.185982 -23.109631
16.053511 39.663773 -21.934896
15.968742 39.684345 -22.103109
15.389905 40.028698 -23.39245
15.413648 39.967255 -23.161776
15.474204 39.96357 -22.309526
25.043541 -11.221734 -8.0783978
25.12742 -11.304987 -7.9541841
25.391024 -11.268999 -7.6413226
-11.449816 -10.912019 -28.482212
-11.285176 -10.921111 -28.390406
-11.300883 -10.832249 -28.523396
-11.516232 -11.020201 -28.39908
-11.169848 -10.930957 -28.335526
-11.291919 -11.01714 -28.176809
-11.137383 -11.000997 -28.16593
-11.436403 -11.058691 -28.266874
-10.078791 -11.143522 -28.373524
-10.171414 -11.167596 -28.304621
-10.313435 -11.159876 -28.308334
-10.483002 -11.133081 -28.379599
-9.4778662 -12.780017 -26.14333
-9.4131222 -12.717228 -26.313713
5.01301 -12.86749 -26.920109
4.8616719 -12.914234 -26.878077
25.232101 -11.300201 -7.8228154
25.322994 -11.33236 -7.7207074
15.729331 39.832329 -21.943056
12.437832 -13.269455 -26.082027
12.293281 -13.216053 -26.143147
6.6001897 -13.527473 -25.856291
6.4855227 -13.479012 -25.895691
6.5261788 -13.55402 -25.814371
15.650222 39.880924 -22.047499
6.3865466 -13.535202 -25.797005
6.3628087 -13.406591 -25.98625
6.2038984 -13.419343 -25.94845
6.2709804 -13.496986 -25.83886
15.482425 40.027683 -21.937393
15.446421 40.035786 -22.07585
15.363187 40.084404 -21.97447
24.807022 -11.121389 -8.4560213
24.960978 -11.373623 -8.2168198
15.214499 40.1124 -22.225897
25.035639 -11.391261 -8.1109705
24.840912 -11.383627 -8.4239397
11.095129 38.900917 -24.66
11.162639 39.042938 -24.380182
24.520765 -11.392948 -8.9838457
11.112608 38.980637 -24.462633
11.310065 -13.617101 -25.598007
-3.3993258 -12.081704 -27.365845
-3.3132007 -12.202824 -27.273495
-3.1444249 -12.224595 -27.295271
-3.1154683 -12.106128 -27.394487
-3.3543203 -12.350243 -27.183878
-3.1921408 -12.42291 -27.123882
5.8390188 -12.830133 -27.133154
3.6578062 -12.838163 -26.918346
3.7554753 -12.644699 -27.049816
3.508281 -12.838139 -26.899757
3.7734709 -12.780344 -26.967817
3.8270199 -12.649235 -27.054432
3.9374192 -12.832458 -26.909527
11.671914 39.535042 -24.596306
11.71825 39.595238 -24.284594
11.829016 39.62162 -24.393841
11.886585 -13.440325 -25.959734
11.87136 -13.31018 -26.032419
11.736383 -13.319267 -26.02961
11.84228 39.648735 -24.280651
11.567759 39.541374 -24.286184
15.801448 39.871979 -21.634981
-8.7288151 -13.233341 -24.753044
-8.6009388 -13.236296 -25.055042
-8.9062672 -13.251303 -24.972607
-6.0988178 -11.34237 -28.452347
-6.1609778 -11.467394 -28.331396
-6.015626 -11.412371 -28.398207
-6.2532134 -11.412996 -28.391071
0.15271673 -13.061543 -26.088261
0.5177322 -13.050895 -26.108181
10.882652 38.905014 -23.868359
-9.0820961 -11.609636 -27.836752
-9.0885105 -11.636263 -27.699581
-8.9411669 -11.699742 -27.625456
-11.689458 -12.068707 -27.206112
-11.872612 -12.17569 -27.026844
-11.594021 -12.196201 -27.027763
-9.5850086 -12.633267 -26.759212
-9.5749893 -12.5489 -26.875114
-9.6832294 -12.58362 -26.827335
-9.454483 -12.575292 -26.847149
5.7276258 -12.676034 -27.149885
5.8405175 -12.74482 -27.239937
5.7256064 -12.561733 -27.238277
-0.77747881 -12.956398 -26.361803
11.165364 39.530334 -23.801657
11.201633 39.463242 -23.966034
11.084133 39.429161 -23.84222
-0.86499161 -12.892994 -26.506426
-0.55540508 -12.87767 -26.599007
11.28065 39.565411 -23.924028
-0.30437946 -12.844429 -26.793699
-0.26307264 -12.909496 -26.55625
-0.051356945 -12.850887 -26.763683
-0.41787529 -12.8773 -26.692181
-0.49436441 -12.844586 -26.76734
24.551846 -10.840385 -8.9125252
24.369955 -10.982452 -9.2203407
24.365168 -11.380246 -9.2429771
-0.6723693 -12.815176 -26.826702
-0.85973334 -12.796016 -26.848606
-0.93794221 -12.857487 -26.732693
24.439384 -11.396618 -9.114255
11.029702 39.323677 -23.875187
10.977464 39.324039 -23.735107
10.953449 39.197411 -23.848089
10.899177 39.182732 -23.735174
15.946128 39.6982 -21.569422
16.003592 39.684799 -21.283533
-1.0886118 -12.825443 -26.828016
15.479525 40.045586 -21.06637
24.927422 -11.462423 -8.3372641
16.339142 39.425018 -20.811256
16.281166 39.4729 -20.930046
16.575794 39.149529 -20.6653
24.662155 -11.441662 -8.7933512
24.71641 -11.317172 -8.6371155
16.15247 39.584454 -21.453493
16.27219 39.503658 -21.516266
16.2257 39.52401 -21.345348
24.203711 -11.256369 -9.4457216
24.284674 -11.359273 -9.3529654
24.279762 -11.036684 -9.3736601
16.166262 39.543102 -21.056614
16.974726 38.533043 -21.155174
16.947489 38.524651 -20.964354
17.024113 38.419857 -21.067947
16.898508 38.617401 -21.035862
16.874228 38.684372 -21.1548
16.943161 38.6078 -21.272057
-1.0670127 -12.596551 -27.037231
-9.8102303 -12.83772 -26.097307
-10.001125 -12.856234 -26.066416
-9.8925514 -12.927097 -25.992897
23.900141 -10.995573 -9.9099941
24.009634 -11.246737 -9.6994257
23.807281 -10.971325 -10.039942
-11.40879 -13.10613 -25.833601
-11.420529 -13.012043 -25.927149
-11.545137 -13.078577 -25.861887
-11.264056 -13.078307 -25.87849
-8.3742733 -13.161962 -25.839561
-8.4857159 -13.06511 -25.952545
-8.5262594 -13.176835 -25.815807
-8.6117783 -13.126947 -25.895351
1.9265594 -13.089266 -26.101032
2.0343764 -12.955313 -26.423527
1.7364029 -13.083712 -26.061214
9.5259237 -13.194086 -26.085957
9.6749372 -13.315762 -26.009052
9.8211193 -13.268644 -26.039524
9.5081043 -13.292205 -26.016981
9.3052244 -13.216541 -26.054838
12.696795 -13.522289 -25.976181
12.869585 -13.506251 -25.953308
-5.9555607 -11.615105 -27.875633
-6.2645259 -11.742483 -27.743349
-6.2361908 -11.832005 -27.56418
-6.1936817 -11.656116 -27.898699
-4.8554144 -12.025589 -27.495701
-4.9610662 -12.014244 -27.494392
16.940933 38.60672 -21.408661
16.516924 39.209633 -21.426365
2.7619383 37.330112 -18.507597
-7.4257178 -12.407679 -27.055048
-7.4933724 -12.317604 -27.119158
-7.5706668 -12.40366 -27.050434
16.359394 39.369858 -21.190348
16.48851 39.214615 -20.880081
16.448341 39.300858 -21.141369
16.537836 39.200603 -21.142986
26.645065 -11.133633 -6.5889463
16.703072 38.966187 -21.09551
25.593117 -11.332766 -7.4546499
23.892275 -11.251567 -9.8467703
16.598005 39.08839 -20.981483
23.726257 -10.895538 -10.170266
23.641325 -10.846384 -10.296666
-7.3507333 -12.317398 -27.140913
-7.2913899 -12.422012 -27.056799
-11.907659 -13.158667 -25.334248
-12.008035 -13.176226 -25.209347
-11.904966 -13.175851 -25.135448
16.743271 38.955616 -20.976868
16.707367 39.001896 -20.854361
16.676353 39.049156 -20.714729
23.79394 -11.215294 -9.9506111
23.690248 -11.03489 -10.144302
23.6374 -11.18238 -10.141188
23.713045 -11.254394 -10.05045
23.573206 -11.109114 -10.242951
16.781546 38.835686 -20.613226
16.800014 38.879166 -20.897764
23.503843 -11.039385 -10.378623
23.418852 -11.028866 -10.510792
23.337967 -10.995527 -10.637237
23.183945 -10.928744 -10.860271
23.257275 -10.984086 -10.746886
16.878693 38.649757 -20.885153
15.306046 40.104549 -20.859392
-2.2918215 -13.399792 -25.462414
-2.3910389 -13.383335 -25.243149
1.9468054 -13.466484 -24.670412
1.8297242 -13.457253 -24.67337
1.9665316 -13.450462 -24.559513
-12.3818 -11.068047 -28.355892
-12.227708 -11.007633 -28.366497
-12.302686 -11.097017 -28.207848
-9.2539196 -11.003273 -28.495232
-9.2306061 -11.227416 -28.268568
-9.1218939 -11.335919 -28.322241
-9.1328745 -11.108088 -28.481318
-12.486298 -11.451112 -27.986071
-12.403568 -11.486621 -27.860647
-12.252614 -11.365489 -27.905418
26.008686 -11.247774 -7.064476
16.843319 38.688065 -20.193556
15.213287 40.189194 -20.913225
25.006199 -11.488173 -8.2183247
24.857594 -11.495695 -8.4806767
24.607454 -11.507815 -8.9459143
24.207369 -11.39007 -9.4778576
24.109705 -11.347879 -9.5943851
15.076201 40.249092 -20.841358
23.07012 -10.613873 -11.136892
23.087053 -10.928541 -10.978937
15.017195 40.222446 -20.582243
-9.4939146 -11.342621 -27.950621
-9.3066759 -11.54463 -27.886217
-9.2672472 -11.458317 -28.042294
-9.1850986 -11.563975 -27.962677
-9.1437817 -11.505807 -28.12912
-9.3517275 -11.323996 -28.045528
-4.6461639 -11.954697 -27.513195
-4.6580787 -11.810364 -27.623434
-10.563469 -12.513401 -26.855219
14.837047 40.332829 -20.513054
14.912761 40.28717 -20.62603
26.160343 -11.28187 -6.978476
26.308762 -11.312497 -6.9196696
26.400391 -11.270279 -6.8150115
25.908587 -11.338834 -7.1977677
25.782545 -11.328729 -7.2914419
25.69862 -11.417926 -7.4354362
27.295946 -10.911299 -6.1765537
27.428509 -10.917549 -6.1437225
2.1951792 -12.90367 -26.586998
2.1835561 -12.891149 -26.737032
2.0808473 -12.858683 -26.819654
27.216797 -10.994069 -6.2479506
4.1330476 -11.713358 -28.405563
4.2660308 -11.71401 -28.425566
27.123482 -11.053993 -6.3157859
27.015827 -11.091298 -6.3828406
26.892097 -11.150948 -6.4755297
25.209267 -11.436533 -7.9114389
25.322939 -11.445505 -7.7915068
25.114611 -11.45555 -8.0237083
25.418449 -11.412268 -7.6571422
24.750851 -11.504155 -8.717885
26.079889 -11.390387 -7.1382914
12.383023 40.03886 -22.860727
12.4907 40.112183 -23.107878
12.369418 40.070312 -23.123077
12.196319 39.978893 -22.966724
24.535397 -11.506916 -9.0741148
24.457203 -11.506578 -9.2045307
24.379709 -11.490685 -9.3351784
24.29685 -11.467525 -9.434391
27.588789 -10.919398 -6.115263
26.7752 -11.188607 -6.5529242
26.713766 -11.278896 -6.700088
26.236523 -11.387355 -7.0601568
25.999016 -11.459908 -7.2956767
25.849842 -11.447312 -7.3632908
10.932811 38.79031 -22.937923
-8.3002996 -11.752491 -27.493837
-8.4424696 -11.907097 -27.417469
-8.4223137 -11.697598 -27.538984
25.549911 -11.455581 -7.5886049
25.679762 -11.514378 -7.5792251
25.612385 -11.549159 -7.7076001
25.46736 -11.532177 -7.7558618
25.811768 -11.518372 -7.5296092
25.374466 -11.553774 -7.8974171
25.242275 -11.549549 -8.0294828
25.116428 -11.551061 -8.1672354
25.551867 -11.587541 -7.8549275
25.444153 -11.604895 -8.0098467
25.318647 -11.614217 -8.1748104
25.206352 -11.622987 -8.2965603
25.055429 -11.585592 -8.3363361
25.867296 -11.602291 -8.0422869
25.401871 -11.646689 -8.5343037
26.051485 -11.661856 -8.3520975
14.840682 40.320644 -20.356989
25.765924 -11.555891 -7.6890326
14.98336 40.299198 -20.156494
26.336794 -11.54182 -7.7688627
26.11558 -11.570588 -7.8902006
16.935516 38.588917 -19.899784
16.928719 38.539982 -20.160892
26.144939 -11.497814 -7.4016647
25.966848 -11.519188 -7.4996762
16.904476 38.623104 -19.752077
16.94437 38.515717 -19.675369
11.475227 39.507786 -22.133804
11.35442 39.346649 -22.27264
11.305676 39.283653 -22.109371
11.508448 39.453926 -22.474272
11.347165 39.326092 -22.730301
26.622772 -11.413721 -7.183044
26.223516 -11.457565 -7.2397099
11.186391 39.153728 -22.566193
11.222797 39.163322 -22.715441
11.273585 39.224316 -22.768736
26.680117 -11.355537 -6.8902307
26.526516 -11.390288 -7.0055676
26.324486 -11.434728 -7.14182
15.227415 40.19696 -19.494495
15.447845 40.082718 -19.732471
15.379187 40.136421 -19.783619
27.178186 -11.404081 -7.3355985
26.534164 -11.510321 -7.6494088
15.763435 39.902626 -17.658348
26.662966 -11.692064 -8.2244549
15.765298 39.95647 -17.913849
16.724487 39.022537 -18.713285
16.587257 39.188515 -18.890194
16.57107 39.180298 -18.757391
27.045147 -11.225377 -6.5812573
26.879871 -11.263152 -6.6391258
26.815945 -11.322144 -6.7858567
16.423405 39.372028 -18.479982
27.406755 -11.320372 -7.13165
16.35075 39.506802 -17.976612
16.208992 39.637981 -17.97031
16.283859 39.572472 -17.860054
16.179661 39.645916 -18.132933
16.408323 39.42971 -18.075691
27.501747 -11.429633 -7.5339928
15.877328 39.863678 -17.972134
27.135122 -11.504148 -7.6747317
27.396286 -11.49366 -7.6677165
27.694653 -11.274901 -7.1120367
16.178766 39.65514 -17.820055
15.628876 40.026165 -17.210808
27.906746 -11.173033 -6.857779
27.790506 -11.138773 -6.6843772
15.967595 39.802021 -17.612843
27.448183 -11.087775 -6.3698974
27.79719 -11.00646 -6.3106766
27.908882 -10.861392 -6.0607357
27.739058 -10.961989 -6.1798334
27.840647 -11.322111 -7.3685527
27.987455 -11.311267 -7.3892288
16.780428 38.929302 -18.834774
16.721075 38.966629 -18.96364
16.866753 38.75655 -19.045315
16.859299 38.755207 -18.860947
16.818342 38.854202 -18.734615
16.775789 38.928089 -18.622507
28.736235 -11.210629 -7.6800642
16.856846 38.672001 -18.726578
11.073475 39.02002 -22.299011
11.128423 39.048637 -22.451157
5.7003245 -12.343082 -27.487406
5.7372661 -12.238897 -27.634459
5.626801 -12.123944 -27.636724
5.5073466 -12.199159 -27.539267
11.276979 39.271137 -21.968048
-0.35898668 -12.777708 -26.893124
-0.49701554 -12.725223 -26.933426
17.006918 38.399109 -18.310566
5.0275059 -12.811688 -26.962694
4.9993052 -12.692989 -26.991089
4.8723912 -12.858414 -26.916805
5.1123743 -12.588084 -27.085012
16.865005 38.749073 -17.688068
16.779188 38.860294 -17.582283
16.59403 39.215054 -17.490879
28.462311 -11.173004 -7.3149962
16.764986 38.995251 -17.361502
16.758123 38.916832 -16.592861
16.750607 38.940517 -16.724634
16.846933 38.768688 -17.480844
16.733622 39.025715 -16.64502
16.912258 38.66291 -17.586813
16.790806 38.914455 -17.16683
16.87818 38.665592 -17.826843
16.949297 38.536022 -17.900494
16.943523 38.570885 -17.742298
16.58794 39.231014 -16.651115
16.663208 39.118137 -16.616198
28.361465 -11.341724 -7.6694889
16.99807 38.485218 -18.189379
28.75012 -11.359715 -8.0649929
16.974642 38.569504 -18.31492
14.278075 40.455776 -18.922716
14.037811 40.52903 -19.05164
13.969229 40.535042 -18.879271
11.510201 39.566216 -21.329483
11.324825 39.356384 -21.449211
11.439092 39.484669 -21.434971
11.477714 39.470001 -21.691099
11.935383 39.848934 -21.56839
11.766617 39.722454 -21.330172
11.873472 39.830662 -21.32436
28.348419 -11.499215 -7.9461789
11.959664 39.89962 -21.441238
28.580782 -11.543912 -8.2051764
11.695704 39.668137 -21.451061
12.960134 40.430882 -17.502586
29.445028 -11.127823 -8.1641655
29.200974 -11.207237 -8.1442738
13.136382 40.459858 -17.718872
13.305409 40.478268 -17.87748
13.47884 40.549198 -17.755222
13.145684 40.460846 -17.844709
14.434658 40.485748 -18.715668
14.267054 40.508801 -18.601112
13.753939 40.511543 -18.454342
29.672087 -11.109187 -8.3157387
13.942919 40.558388 -18.182312
13.834446 40.568897 -18.099323
13.687146 40.580994 -18.051517
13.63743 40.581512 -17.85586
12.376348 40.127468 -20.559599
12.310919 40.160122 -20.29887
12.587849 40.263069 -20.354748
12.245535 40.123745 -20.02614
2.6203651 -12.78126 -26.946352
2.9285004 -12.799324 -26.932016
2.5916793 -12.537205 -27.13966
12.620074 40.253731 -20.241261
12.401195 40.195911 -20.178051
12.492508 40.207062 -20.051489
12.641485 40.264324 -20.099106
12.714934 40.287079 -20.227619
12.254096 40.129654 -20.184292
13.116915 40.432564 -20.074169
13.051524 40.391491 -19.846867
13.321112 40.480331 -19.846382
12.786702 40.340187 -20.315773
12.869093 40.377205 -20.000719
12.960825 40.420074 -20.116276
12.89669 40.396729 -20.263443
12.730987 40.353416 -19.88472
13.524824 40.470291 -19.972589
13.342195 40.442444 -20.145252
12.66908 40.329418 -19.753172
12.717913 40.314178 -19.617418
12.811376 40.362591 -19.723085
12.706879 40.302174 -19.490438
12.317784 40.208221 -19.426741
12.548673 40.28072 -19.247181
12.160151 40.110767 -19.426636
12.389681 40.183319 -19.15262
12.624025 40.336895 -19.156242
11.002522 39.071587 -19.391365
10.962062 39.023109 -19.482693
10.914066 38.963493 -19.369356
11.036608 39.118427 -19.537657
29.282015 -11.348694 -8.4515772
29.380096 -11.334478 -8.5189362
2.4909592 -12.762132 -26.950209
2.671119 -12.852882 -26.848183
2.9584858 -12.859518 -26.868708
3.0693882 -12.792467 -26.920704
3.0919776 -12.862509 -26.85704
3.2176898 -12.823689 -26.898537
3.7479525 -12.878548 -26.857021
8.7835484 -13.096012 -26.186834
8.7302866 -13.155712 -26.076498
8.8851414 -13.124779 -26.107548
8.62082 -13.099846 -26.187145
8.581604 -13.160868 -26.062294
8.512126 -13.108673 -26.138826
7.7629957 -13.213903 -26.020756
7.8912764 -13.200542 -26.015135
8.1844826 -13.173347 -26.046572
11.132439 39.287384 -19.379786
8.4487333 -13.165317 -26.055506
8.3176966 -13.159114 -26.064098
9.0122881 -13.12476 -26.101088
9.0467787 -13.206595 -26.025606
9.1721592 -13.205406 -26.038532
8.8951063 -13.194353 -26.034864
8.3274269 -13.244246 -25.985195
8.1849928 -13.261316 -25.974554
11.182417 39.338886 -19.50754
11.191563 39.299847 -19.65608
11.206209 39.369518 -19.361502
11.265677 39.44014 -19.466812
13.251263 40.492104 -19.254137
12.698848 40.406078 -17.501564
13.498689 40.546711 -18.103802
13.418321 40.556473 -18.289959
13.574634 40.534607 -18.23889
28.024158 -11.481791 -7.7784185
11.697716 39.789341 -18.366573
11.88691 39.967514 -18.325453
11.853606 39.912392 -18.478386
8.61938 -13.253208 -25.988428
16.621862 39.015709 -24.793169
17.036814 38.374123 -24.042786
16.978022 38.511627 -24.320217
16.936319 38.598541 -24.158369
15.239305 40.078827 -25.2789
15.267368 40.066521 -24.128218
15.423931 40.026569 -24.185499
15.332191 40.078823 -24.274891
15.382809 39.999203 -24.0037
15.176584 40.100422 -23.856663
15.055689 40.144421 -23.931532
28.92824 -11.431556 -8.3452301
15.1116 40.100601 -24.157944
14.955831 40.171856 -23.825817
15.083266 40.116199 -23.619623
13.223649 40.227814 -25.25881
13.529869 40.267265 -25.199457
13.475742 40.240372 -25.309402
15.521262 39.970722 -22.83779
28.780809 -11.622734 -8.494544
28.561241 -11.648022 -8.2985678
15.363812 40.049599 -22.509897
13.410057 40.223812 -25.393559
13.644969 40.321972 -24.921085
13.683887 40.290901 -25.199207
29.143671 -11.471 -8.6388302
29.271929 -11.404612 -8.5828018
13.28669 40.198586 -25.398613
13.122906 40.21146 -25.387934
13.419652 40.289776 -25.07725
14.036477 40.312222 -24.985451
12.064384 39.808525 -25.20982
28.372986 -11.635785 -8.1363945
11.621536 39.422287 -25.320154
28.237053 -11.671845 -8.0897141
11.943582 39.724239 -25.229969
11.707328 39.55666 -24.872396
11.745994 39.615364 -24.755238
11.805131 39.667606 -24.646212
15.367252 40.069611 -21.814631
15.226456 40.121826 -21.86931
11.870767 39.688572 -24.544304
11.947436 39.754681 -24.450788
8.7609024 -13.26964 -25.992178
4.0260258 -13.235197 -26.040083
4.0536408 -13.444063 -25.896137
4.177896 -13.416548 -25.920286
2.8007262 -13.479431 -25.495457
2.7930412 -13.487961 -25.623381
2.6484921 -13.493763 -25.523535
3.0144894 -13.461544 -25.545511
2.9891412 -13.489625 -25.715963
3.1453993 -13.493315 -25.635958
3.1672921 -13.492542 -25.732687
3.2987258 -13.514486 -25.634201
2.7785125 -13.483296 -25.73341
2.6258497 -13.440652 -25.725168
2.4019578 -13.392176 -25.647818
2.5042531 -13.469837 -25.514235
12.017575 39.828186 -24.354618
26.971287 -11.507154 -7.6631265
12.133297 39.887775 -24.341688
12.197744 39.888023 -24.063137
12.105155 39.866081 -23.989964
12.222829 39.917866 -23.966999
12.104764 39.84198 -24.111336
11.234997 39.321163 -24.113152
10.880395 39.045769 -23.7988
11.502909 39.556953 -24.150902
11.413507 39.584232 -24.031303
11.125454 39.363068 -23.971195
17.302565 37.559017 -20.921753
10.846724 38.839977 -23.397194
27.042021 -11.607975 -7.9252415
10.853139 38.923832 -23.704887
10.854865 38.949944 -23.534384
10.865618 39.097282 -23.642841
10.891701 39.142242 -23.51384
27.217072 -11.764663 -8.2648392
10.875531 39.005737 -23.409531
17.085056 38.29562 -20.829216
17.131084 38.174213 -21.023127
27.128929 -11.839028 -8.5626202
17.022392 38.428295 -20.896612
17.021935 38.435074 -20.741465
16.963379 38.565041 -20.645372
16.936363 38.61499 -20.49176
16.941471 38.545803 -20.306147
16.991619 38.483936 -20.42403
17.108498 38.244293 -20.266806
17.02846 38.356251 -20.471542
17.060814 38.365166 -20.155863
10.8595 38.752598 -23.075191
26.818623 -11.931803 -9.2188959
27.05822 -11.934419 -9.1373901
26.942038 -11.860703 -8.8341513
11.018736 39.018677 -23.035566
-22.791975 38.407829 -20.839735
-22.797977 38.490906 -20.699179
17.079296 38.320545 -18.689932
26.57707 -11.843748 -8.9635124
-22.83709 38.320328 -20.674433
-22.831739 38.406349 -20.579105
-22.858604 38.142891 -20.630205
-22.863829 38.08707 -20.510027
-22.913071 38.025574 -20.217939
-22.860598 38.199173 -20.025164
-22.91568 37.918327 -20.372446
17.265089 37.447632 -19.341047
17.256382 37.698719 -19.437214
17.264996 37.604347 -19.344349
-22.821144 38.181984 -21.521877
-22.799538 38.254951 -21.416975
17.268955 37.494041 -19.17556
17.238781 37.755966 -19.294079
17.211494 37.812939 -19.136894
26.321733 -11.791708 -8.8720579
17.061531 38.344555 -18.827869
17.027637 38.337364 -18.968348
17.186682 37.931477 -19.006641
17.121969 38.096062 -18.753918
17.106302 38.227524 -18.797012
17.147739 38.082706 -18.901247
17.176704 37.889847 -19.585188
17.154657 37.952034 -19.450752
17.132812 38.027061 -19.303009
17.117113 38.098793 -19.171333
17.081509 38.19931 -19.072004
26.445398 -11.96034 -9.3403807
25.986105 -11.762791 -9.0077648
25.902452 -11.779183 -9.1919937
27.303732 -11.944255 -8.8859978
27.448626 -11.994862 -8.7869692
17.276489 37.47802 -19.64822
17.227953 37.622307 -19.671293
17.297117 37.320278 -19.625946
17.241232 37.550282 -19.767139
27.265133 -11.982007 -9.396595
27.364258 -11.988597 -9.2759657
17.024097 38.347004 -19.793077
11.000507 38.93259 -22.686321
11.181259 39.155342 -22.851639
27.803959 -11.611463 -7.946382
13.643847 40.406914 -22.222958
13.449212 40.343601 -22.470556
13.364458 40.34454 -22.353628
14.359859 40.427902 -19.026241
14.203976 40.493103 -19.047043
11.968568 39.887062 -22.039265
12.119959 39.95752 -21.802626
12.175381 40.018986 -21.928154
12.105206 39.981567 -22.077414
11.749498 39.69305 -22.048618
11.808064 39.778698 -21.781776
15.087063 40.268929 -19.303913
15.076276 40.266953 -19.512161
15.047527 40.242661 -19.734282
14.666937 40.396706 -19.115313
14.623917 40.402588 -18.929111
14.981522 40.305122 -19.244093
13.694631 40.506927 -18.342453
14.048107 40.507977 -18.76536
14.382174 40.451729 -19.365709
25.176945 -11.644143 -8.7906618
25.523254 -11.720755 -9.218998
25.080389 -11.624249 -8.4898167
25.700472 -11.664993 -8.5990801
25.010267 -11.620318 -8.596139
24.677137 -11.594397 -9.1409559
24.866034 -11.610665 -8.8543367
24.722353 -11.576935 -8.9209871
11.273746 39.340549 -21.6411
11.524862 39.508907 -21.804916
11.290895 39.345543 -21.796181
11.335421 39.351635 -21.915548
25.158384 -11.722641 -9.7352257
26.002619 -11.870968 -9.7574253
26.073933 -11.873405 -9.5171013
11.537881 39.574013 -22.028189
12.034869 39.886246 -21.696157
12.251528 40.088871 -21.778549
12.190505 40.023273 -21.565722
12.308411 40.12212 -21.613026
12.129126 39.956947 -21.664402
12.068228 39.930145 -21.552258
12.12384 39.995579 -21.435318
12.39145 40.095402 -21.386444
12.354221 40.078812 -21.280586
12.306693 40.134949 -20.900114
12.156929 40.008873 -20.923199
12.223182 40.074543 -20.783827
12.337669 40.152752 -21.022253
12.870893 40.435905 -18.792542
11.954226 40.000999 -18.480852
11.88763 39.917198 -18.603163
25.567333 -11.827261 -10.348657
12.002013 39.969563 -18.71756
12.10543 40.052238 -18.71229
12.751961 40.418438 -18.347208
13.006844 40.475262 -18.52907
13.247478 40.529106 -18.548298
13.132923 40.502903 -18.778603
12.926708 40.43671 -19.480228
12.907274 40.462803 -18.647942
12.975842 40.479965 -18.775667
12.757678 40.386963 -18.7244
12.780581 40.41798 -18.586805
12.201104 40.152069 -18.744839
12.241051 40.157722 -18.888836
12.050963 40.045319 -19.063072
12.068747 40.018414 -18.831028
24.379723 -11.572016 -9.8145208
24.686829 -11.612012 -9.3677139
24.411839 -11.557881 -9.5327024
24.322708 -11.549915 -9.6644726
12.469807 40.304588 -18.775181
12.337264 40.243767 -18.814859
12.594594 40.384586 -18.313623
24.108641 -11.519392 -10.091058
24.087572 -11.484927 -9.8510551
24.020046 -11.475043 -9.9545021
24.199299 -11.574595 -10.649958
12.267948 40.143318 -19.028759
23.992611 -11.495029 -10.189838
12.68554 40.407486 -18.468653
13.93894 40.473251 -20.114225
13.944455 40.492893 -19.681065
14.047737 40.498764 -19.814888
24.720337 -11.739453 -11.139297
24.010685 -11.530644 -10.865172
24.088863 -11.565681 -11.050111
13.05267 40.501991 -18.650162
14.141266 40.506004 -19.172316
13.796694 40.539509 -18.814913
13.892515 40.533012 -18.953548
13.699705 40.53915 -18.715757
13.482896 40.536892 -18.613785
13.563253 40.529846 -18.702944
24.751759 -11.759742 -11.432508
24.114357 -11.58826 -11.352313
25.18055 -11.82418 -11.023865
25.144199 -11.774426 -10.580202
13.587833 40.495022 -18.9601
14.201867 40.472984 -19.568924
13.972469 40.472466 -19.412426
13.880942 40.48967 -19.255962
13.573587 40.511265 -19.327894
14.093077 40.486675 -19.660967
13.381357 40.456379 -19.500982
