ply
format ascii 1.0
comment PCL generated
element vertex 1596
property float x
property float y
property float z
element camera 0
property float view_px
property float view_py
property float view_pz
property float x_axisx
property float x_axisy
property float x_axisz
property float y_axisx
property float y_axisy
property float y_axisz
property float z_axisx
property float z_axisy
property float z_axisz
property float focal
property float scalex
property float scaley
property float centerx
property float centery
property int viewportx
property int viewporty
property float k1
property float k2
end_header
32.777016 59.102985 49.739571
15.695754 21.480061 50.68116
15.651012 21.367847 50.675941
15.544607 21.334307 50.789799
15.58126 21.227068 50.643311
15.45656 21.223587 50.779083
32.777321 59.228989 49.673832
33.748123 59.755947 49.256443
33.592335 59.72686 49.259857
33.758057 59.651985 49.379715
44.174076 56.70504 51.442581
43.99527 56.739384 51.543137
15.765961 22.4771 50.954727
15.811214 22.600227 50.965504
15.941677 22.808037 50.888458
15.739929 22.878117 51.055462
15.372581 21.114769 50.768623
15.295573 21.009153 50.75856
42.120239 57.947071 51.417988
39.660324 59.381519 51.012779
7.7390895 24.061277 32.728977
7.6708965 24.131447 32.738537
18.80471 22.57205 41.48428
18.791477 22.592674 41.327087
18.706877 22.754732 41.230057
18.643639 22.905363 41.070435
18.735006 22.698231 41.434135
18.762039 22.646687 41.62756
39.396614 59.335415 51.084358
39.760178 59.113876 51.199242
39.546539 59.214886 51.162495
16.069345 24.269194 33.274979
15.931612 24.280725 33.20956
37.936958 59.995056 50.486401
37.76424 59.995361 50.44722
15.245366 23.842422 51.163849
17.368237 24.957376 33.52898
37.455685 59.95219 50.417744
37.125092 60.089886 50.154636
18.714407 23.861982 43.085976
18.681097 23.986708 43.138016
34.945396 59.797092 49.762642
34.567753 59.860905 49.521191
34.354195 59.819344 49.460018
15.485719 24.124866 33.063999
15.911598 22.977818 50.936584
15.952067 23.077375 50.912975
15.839286 23.095816 50.99416
15.769361 23.005005 51.066219
15.726949 23.114573 51.074078
8.3638268 23.501781 32.712315
8.2435217 23.590813 32.727242
8.4822121 23.415424 32.703861
8.118906 23.69162 32.734043
8.0020428 23.791679 32.737068
17.284668 24.848751 33.567337
33.544621 59.619972 49.358696
43.071873 57.492813 51.347477
42.944435 57.561108 51.313988
40.700943 58.756756 51.302814
18.042307 24.48608 43.026222
18.111536 24.375454 42.979153
40.503201 58.821358 51.293179
40.379459 58.861988 51.292091
18.821802 22.539446 41.746578
18.761948 22.660828 41.852352
18.676931 22.765911 41.719326
18.621433 22.847624 41.881302
18.817253 22.582464 41.994312
40.198719 58.903786 51.31102
40.023308 58.977242 51.278736
7.8864827 23.883768 32.75135
7.7658205 23.966766 32.77002
39.887432 59.019901 51.264782
9.0301294 23.079769 32.639549
8.9182863 23.168488 32.631176
8.7806282 23.239841 32.652607
8.6248808 23.306526 32.702698
18.554876 23.09325 42.215069
18.672882 22.93239 42.216286
18.596561 22.945768 42.072079
18.476397 23.077749 42.070747
18.447357 23.165712 42.150185
18.626698 23.185688 42.438511
18.677582 23.017521 42.339005
43.217953 57.305882 51.498928
32.620831 58.801357 49.950241
18.375805 23.331064 42.227917
18.551088 23.42128 42.534576
33.018921 59.079807 49.834122
32.971519 59.332539 49.602665
33.208168 59.326958 49.60524
33.111061 59.432133 49.508087
33.250301 59.452255 49.48468
18.398823 23.572144 42.47049
33.393505 59.418861 49.536697
18.394249 23.178162 42.08559
18.255785 23.593378 42.313972
18.195337 23.518072 42.155273
18.309366 23.23234 42.010803
18.242422 23.324766 42.042824
33.388371 59.541634 49.418884
33.619003 59.513912 49.499256
18.521137 23.607468 42.642269
42.04372 58.063484 51.337639
41.986347 57.97683 51.497524
18.210228 23.404825 42.085373
18.158533 23.654869 42.213326
18.173332 23.752539 42.325241
42.693119 57.658245 51.328892
42.809311 57.594185 51.340725
18.276049 23.763248 42.486286
18.419355 23.727255 42.622532
18.170568 23.867016 42.422668
18.202854 23.942661 42.549389
18.340471 23.912285 42.6991
42.933605 57.470032 51.447277
34.12394 59.592224 49.633057
33.921844 59.747993 49.33403
38.919277 59.455811 51.021164
39.06638 59.585869 50.896893
18.555122 23.781954 42.823235
18.661577 23.52467 42.777672
38.683693 59.549774 50.933239
18.727797 23.686562 43.006138
36.381145 60.232838 49.741001
18.66037 23.822454 42.970467
18.76317 23.487947 42.958344
36.494125 60.19923 49.816147
18.201166 24.062075 42.67638
18.389458 23.114887 41.963657
18.492781 22.996992 41.936874
36.656456 60.153675 49.925095
41.314827 57.363457 54.574749
41.477196 57.264664 54.563538
41.383507 57.316746 54.627083
43.90081 56.927151 51.414894
43.999779 56.857346 51.417404
43.732777 56.946186 51.516273
18.611795 23.933758 42.999809
18.562901 24.106361 43.111301
43.769211 57.05175 51.38945
41.277588 58.423126 51.374878
41.332039 58.482967 51.266499
18.280325 24.105938 42.831963
40.917046 58.496807 51.523754
41.389225 58.195026 51.675232
30.816174 57.804508 50.105743
18.453514 24.009867 42.911621
30.951925 57.88179 50.09623
18.353437 24.207743 43.022877
18.471889 24.28479 43.201019
35.561398 60.051174 49.713009
18.214657 24.327446 43.039703
18.299244 24.368156 43.157635
39.131706 59.192162 51.298069
31.087059 57.857887 50.153091
31.298368 57.838081 50.289692
32.463459 58.470619 50.262043
32.95694 58.731514 50.212582
37.320129 58.821316 52.211292
37.56805 58.93721 51.951801
37.721516 58.81599 52.244186
36.758354 58.720741 52.387409
37.166351 58.93758 51.925297
37.442883 58.699337 52.569065
42.632675 57.252022 52.304199
41.875874 57.849571 51.883095
42.918053 57.338326 51.716434
31.175476 57.969997 50.104622
31.059879 57.954033 50.073124
31.961006 58.283932 50.182972
31.662094 58.132637 50.168652
31.734953 58.274471 50.068977
31.541109 57.972698 50.26474
31.450172 58.054611 50.141769
31.29985 58.021038 50.112206
31.543139 57.882034 50.37981
38.291447 58.973324 51.829334
38.762535 58.941097 51.797684
38.566074 58.83493 52.072632
39.10247 58.730309 52.140438
38.160934 58.823936 52.187195
34.94569 58.469589 51.944103
34.86702 58.391769 52.104168
34.821808 58.431839 51.945919
39.150883 58.943211 51.680466
39.54105 58.796177 51.787334
35.146103 58.573845 51.847828
35.437378 58.559586 52.105865
35.113335 58.470421 52.087669
18.132847 23.496958 42.020981
18.162882 23.390268 41.970726
18.210312 23.304737 41.910294
34.700203 58.383682 51.99155
32.840046 57.901699 51.511562
32.974621 57.862976 51.784866
32.668026 57.742321 51.726868
18.614319 24.212971 43.262371
33.191666 58.105659 51.422459
32.790447 57.620548 52.337791
32.306351 57.55442 51.790264
31.867317 57.295242 51.941128
32.262821 57.426712 52.151466
41.634529 57.151649 54.56197
41.570633 57.181396 54.618649
41.544418 57.267281 54.326874
37.365452 58.304745 54.270554
37.309444 58.252819 54.625969
37.107681 58.236755 54.591614
37.91671 58.924049 51.975342
38.530838 58.700645 52.431454
37.978516 58.684425 52.602531
40.413727 58.725136 51.462177
40.972511 58.235771 51.994228
43.158932 57.121979 51.851261
43.487076 57.007942 51.676758
43.556362 56.724007 52.115383
43.730804 56.802986 51.725193
7.6609874 24.053171 32.784618
7.5763493 24.160328 32.795517
44.020515 56.191078 52.557819
18.408144 23.575615 40.972511
34.453468 58.24004 52.238125
34.589401 58.375919 51.936829
33.360374 57.969933 51.936729
41.949863 56.961304 54.556526
41.792084 57.05674 54.558872
18.349361 23.538332 41.090729
42.394829 56.711548 54.467258
42.10804 56.864834 54.555645
40.400845 57.818901 54.431252
40.486496 57.760628 54.636799
40.316151 57.839211 54.647861
40.241512 57.882278 54.583462
40.989952 57.553291 54.401634
40.65572 57.681854 54.625504
37.750206 58.26825 54.639397
37.58691 58.264687 54.6339
37.492325 58.270676 54.575733
38.749416 58.239445 54.495464
38.904449 58.217995 54.594944
38.759106 58.232449 54.597435
42.584461 56.569946 54.559498
41.152214 57.443474 54.588264
42.266644 56.76722 54.556301
40.310127 57.91098 54.064167
40.733383 57.757172 53.974174
37.095364 58.39109 53.714798
37.518951 58.430172 53.632042
36.739166 58.195457 54.579285
36.848015 58.289337 54.123905
36.905949 58.220722 54.557293
7.3855257 24.3197 32.882839
7.285759 24.42708 32.908607
37.834122 58.307529 54.326176
37.913467 58.271774 54.644974
38.337505 58.316631 54.139446
38.186024 58.277172 54.590591
38.076691 58.275265 54.650627
38.328354 58.26738 54.593964
7.0137081 24.653984 33.116398
6.8630371 24.855955 33.078987
6.8508983 24.790569 33.342403
38.471138 58.256947 54.596615
34.310097 57.762882 54.418083
34.451504 57.793865 54.524738
34.318916 57.767673 54.481449
33.986652 57.661537 54.484501
33.994133 57.685242 54.259235
37.806465 58.367779 53.955864
6.4800925 25.190899 33.870815
39.771435 58.046696 54.348114
40.158524 58.026566 53.72226
40.083786 57.931351 54.600323
39.925175 57.979801 54.61602
39.764679 58.027168 54.6301
39.601437 58.073181 54.642914
40.462963 57.895672 53.845539
40.624321 57.879665 53.622643
41.027103 57.714951 53.577766
33.817505 57.607052 54.483593
34.153442 57.714916 54.483513
34.60952 57.833687 54.513992
34.649609 57.879353 54.18755
34.904835 57.900444 54.54747
34.767498 57.873478 54.503277
38.925709 58.313126 53.733521
39.503101 58.205608 53.717331
39.082104 58.220165 54.167339
41.270279 57.519073 53.885769
41.374229 57.554516 53.529709
39.926872 58.215588 53.165066
40.403271 58.121986 52.963562
40.466042 58.014252 53.297642
41.904297 57.269119 53.526447
39.050568 58.202209 54.590591
39.197075 58.18573 54.585251
39.435303 58.117935 54.655132
39.26733 58.161934 54.667236
38.614681 58.245384 54.597897
32.414352 57.130608 54.281776
32.701107 57.220818 54.441002
32.546738 57.165543 54.431877
35.343857 58.027473 54.234093
35.53759 58.011261 54.560204
35.389843 57.990463 54.52784
36.026566 58.146709 54.249146
35.700214 58.039131 54.544388
35.078651 57.938869 54.519291
35.227867 57.957066 54.54842
34.953072 58.045895 53.639748
42.560867 56.715832 54.070267
33.453671 57.553207 53.957626
33.391949 57.476227 54.384171
33.239838 57.418919 54.415012
40.187294 58.273937 52.676067
40.988548 57.523281 54.601334
40.823105 57.602753 54.613728
40.841606 57.860451 53.32579
41.249489 57.719208 53.149517
33.259857 57.630253 53.114182
33.866352 57.804615 53.286999
33.646114 57.551514 54.480911
40.597282 58.130329 52.692673
40.779194 57.973366 52.993305
57.687527 57.923012 52.901932
39.585987 58.459156 52.608692
38.958351 58.568531 52.660076
40.512478 58.29155 52.296917
41.040699 57.998314 52.543846
34.798782 58.139858 53.000778
34.252426 58.008396 52.892868
34.436653 57.943108 53.461872
57.826874 57.592995 53.168121
57.525375 58.189674 53.101471
57.678562 57.907444 53.339252
57.386559 58.439331 53.169491
57.497093 58.243561 53.378841
57.35355 58.502201 53.414539
57.462006 58.34478 53.601585
57.97868 57.268494 53.167236
57.794346 57.760712 53.706978
57.850552 57.563438 53.465233
57.90601 57.417686 53.329712
57.939274 57.459267 53.734135
57.770462 57.961548 54.051937
57.616737 58.089397 53.660343
57.525974 58.333706 53.894962
35.714355 58.643791 52.077755
35.903233 58.539516 52.503696
33.870026 58.147579 51.953213
34.166805 58.295017 51.817844
34.440788 58.400814 51.77346
32.479496 57.259521 53.49334
32.074112 57.250439 52.551224
33.695137 57.91547 52.529861
57.646793 58.261879 54.197929
32.160709 57.66341 51.33506
32.442036 57.717319 51.507095
32.430439 57.829975 51.249973
32.62405 57.831261 51.437031
36.422707 58.153065 54.559837
36.255306 58.120781 54.584167
35.862766 58.066971 54.52861
36.025249 58.094776 54.512859
36.140266 58.107765 54.548531
36.572357 58.170219 54.601315
36.50391 58.234344 54.1903
36.489105 58.386673 53.451931
32.391537 57.109867 54.423046
33.107075 57.372963 54.40089
32.854538 57.275642 54.450394
37.688065 58.540733 53.145134
37.944099 58.573723 52.997272
37.98542 58.464737 53.446449
33.4734 57.49535 54.477184
37.276039 58.536522 53.130264
34.082634 57.774323 53.823261
33.007416 57.330208 54.459949
37.611488 58.496788 53.328457
33.923801 58.298637 51.616356
35.158539 58.366573 52.477367
33.629208 58.193672 51.617058
35.525398 58.235786 53.358559
38.439621 58.546337 52.964432
37.658333 58.610081 52.879799
36.215679 58.713039 52.173584
36.281219 58.896828 51.775688
35.936893 58.71069 52.039116
36.802013 58.974598 51.782959
38.564121 58.410919 53.486263
39.1315 58.392048 53.185364
41.692039 57.675533 52.581944
41.401096 57.985912 52.128441
39.724243 58.599983 52.116989
57.504555 58.487724 54.146622
57.614483 58.438641 54.417961
42.743092 56.47142 54.56012
5.9297028 25.936966 34.590572
42.425537 56.668739 54.557915
43.84956 55.774059 54.518196
43.687748 55.889702 54.515862
57.738441 58.32655 54.622726
57.820339 58.103546 54.486797
58.062923 57.602711 54.42664
57.940845 57.593555 54.001595
58.573322 56.017452 53.061523
42.802025 56.769279 53.386353
58.039238 57.25145 53.766247
58.001892 57.250618 53.521461
57.828724 58.230762 54.757862
57.903072 58.094032 54.733757
58.11121 57.745068 54.787731
57.986465 57.919136 54.691151
58.043205 57.919285 54.855362
58.174393 57.22036 54.199615
58.052845 57.43956 54.144077
58.19146 57.546745 54.72253
58.27383 57.354851 54.685608
43.956615 56.067616 53.04245
39.902126 58.683304 51.820374
40.153648 58.5182 52.018414
40.039459 58.426903 52.341305
40.529755 58.481007 51.83149
40.181866 58.651081 51.717941
39.898834 58.874218 51.473843
39.597034 59.057487 51.320595
39.784462 59.011265 51.309666
31.814146 58.339615 50.043114
38.90361 59.047504 51.569527
38.569752 59.121376 51.515572
39.463875 58.968376 51.50877
35.580517 58.78006 51.680481
34.771976 58.489872 51.783974
37.618076 59.247261 51.364758
38.138374 59.227154 51.392872
37.881184 59.066624 51.68364
37.466782 59.061085 51.691063
37.532337 59.478367 51.007095
38.010387 59.457394 51.067375
38.551376 59.377892 51.146938
37.024002 59.603127 50.745468
38.216732 59.09726 51.601902
7.2460661 23.165674 42.506744
6.9426556 23.550283 42.317741
37.19791 59.329544 51.188736
37.068283 59.934528 50.31786
36.615479 59.848206 50.283897
36.197205 59.752346 50.279331
36.224228 60.042461 49.915527
36.594276 60.021587 50.050983
33.507133 59.307125 49.726219
33.675198 58.959023 50.302006
37.149307 59.124084 51.53986
36.703682 59.211887 51.292439
36.01445 59.197407 51.087608
36.5117 59.387657 50.93203
36.328121 59.557045 50.607105
35.625698 59.581688 50.329933
5.9933252 25.678585 35.74313
34.637333 59.293919 50.304932
35.104275 58.998829 51.01355
5.8230982 26.026722 35.125282
5.660552 26.257181 35.477879
34.1665 58.411522 51.54451
35.022743 58.688461 51.532539
33.804825 58.473103 51.177105
34.519295 58.614277 51.371849
34.346561 58.863426 50.827694
33.001213 58.381607 50.759281
6.0436502 25.512859 36.504971
5.9292555 25.718067 36.3111
32.716434 57.998058 51.192238
58.528904 56.837112 54.702412
58.42395 57.114792 54.78141
58.537361 56.934109 54.854195
31.581989 57.75774 50.604504
32.191788 57.978291 50.785732
31.747602 57.994019 50.389923
31.053715 57.416618 50.674568
31.166174 57.16547 51.250969
31.85718 58.430405 49.99184
31.700792 58.385956 49.982586
33.486969 59.832493 49.174953
33.37619 59.706738 49.289207
31.914137 58.56609 49.917572
25.265747 60.527031 42.403839
25.210716 60.581097 42.285332
25.268311 60.699497 42.371487
25.215593 60.46138 42.319939
25.253202 60.398643 42.401043
25.206247 60.344872 42.300945
25.277298 60.237362 42.450859
25.140228 60.170967 42.122086
25.224874 60.07885 42.378422
58.754349 56.342651 54.702347
58.640518 56.590919 54.69352
58.778534 56.454956 54.900585
17.116812 61.091747 54.293346
17.248913 61.092377 54.169533
17.173346 60.937435 54.157074
15.842407 59.189777 54.182781
15.943089 59.199894 54.080219
15.804434 59.064327 54.114937
15.922375 59.303322 54.180584
15.397505 58.506618 54.173954
15.478508 58.592693 54.118248
15.372223 58.469398 54.105675
15.47193 58.633091 54.214653
15.528255 58.74519 54.167946
16.026125 59.331001 54.091846
16.011044 59.434204 54.182655
16.130276 59.451859 54.077736
16.104141 59.573185 54.187263
16.231243 59.610619 54.090679
16.196743 59.717163 54.197529
16.328552 59.757343 54.103024
16.287878 59.858196 54.209114
16.423149 59.896927 54.114609
16.376387 59.996284 54.221504
16.507725 60.030064 54.128517
16.463572 60.133015 54.234119
16.59742 60.162758 54.13868
16.550842 60.271095 54.247524
16.684624 60.304638 54.154072
16.637302 60.410057 54.262623
16.765572 60.443287 54.17173
16.726381 60.547916 54.277409
16.857639 60.575729 54.18169
16.824337 60.689812 54.290215
16.941465 60.703552 54.195705
6.7225733 24.521181 36.799675
16.966476 60.870815 54.290802
16.788118 60.781174 54.412865
16.880476 60.91769 54.432991
58.729378 55.989361 54.200378
58.817108 56.012245 54.495922
58.878071 55.863564 54.490051
58.707298 56.220161 54.431305
58.56189 56.29364 54.074242
17.071087 61.191261 54.434471
16.982271 61.057495 54.40918
16.69656 60.644382 54.393681
16.606272 60.50713 54.375999
16.517305 60.369362 54.359936
16.429371 60.23114 54.345276
16.34202 60.092594 54.331718
16.254887 59.953865 54.319092
6.7565317 23.842972 41.935295
6.7274733 23.95595 41.441639
6.8450842 23.697443 42.132275
16.167797 59.815002 54.307461
16.080734 59.675964 54.297092
15.993755 59.536644 54.288288
15.90687 59.396927 54.281147
15.820045 59.256798 54.275421
15.733249 59.116432 54.270489
15.677238 59.02821 54.197784
15.705751 58.921761 54.09594
15.602743 58.886681 54.182846
15.631907 58.794498 54.080112
15.584621 58.669743 54.044815
15.522937 58.529305 54.007042
15.437947 58.385242 53.99073
15.290892 58.325077 54.096722
58.315063 57.140205 54.507164
31.867886 58.738609 49.849007
32.106411 58.849686 49.811077
23.897434 59.708954 39.303425
23.988947 59.67527 39.286541
23.962337 59.616833 39.299339
23.03548 60.409939 39.552467
22.93565 60.207546 39.51614
22.821281 60.409435 39.478287
23.202856 60.425064 39.584038
23.199799 60.214966 39.527954
29.359476 61.062706 47.145027
29.410521 61.138733 46.967293
29.293934 61.056374 46.951866
29.145103 60.948395 47.005527
58.437721 56.709366 54.257824
18.330313 59.004677 42.758804
18.250137 59.095943 42.769398
18.166916 59.078644 42.832726
18.167269 59.169228 42.79525
18.05517 59.147717 42.868965
18.000324 59.345436 42.85709
18.122116 59.280834 42.779598
24.008665 59.139732 39.59095
23.898832 59.114422 39.561546
23.961788 59.234478 39.496891
23.976315 59.03928 39.658413
31.533609 58.251766 50.032623
31.310364 58.301495 49.975456
31.512745 58.49057 49.924835
24.045116 59.632839 39.314091
24.044233 59.753277 39.297073
22.973923 62.067585 39.462711
22.966055 61.944073 39.523197
31.749332 58.546753 49.910591
25.443254 61.111881 42.554779
25.370728 61.100197 42.452606
25.3909 61.169655 42.469292
25.428093 61.242409 42.508446
25.560186 61.323551 42.671413
25.535746 61.055351 42.684509
24.283436 60.538464 39.597363
24.07106 60.56596 39.579781
24.16754 60.676018 39.64447
24.289087 60.727821 39.697697
24.152351 60.81102 39.712833
24.267731 60.862095 39.753399
24.166679 60.950806 39.776234
24.294016 60.975174 39.80777
24.204906 61.057533 39.819611
7.5504169 23.467133 37.404915
24.289885 61.105438 39.856831
24.174564 61.168755 39.862305
24.273994 61.232624 39.906898
24.142775 61.311783 39.913399
24.263596 61.370869 39.963383
24.128386 61.492805 39.966961
6.3185492 25.059622 36.948914
24.265017 61.49522 40.018726
24.204016 61.629272 40.044979
24.078062 61.660168 39.989334
24.121941 61.768642 40.044724
23.783432 61.929722 39.893524
23.786533 62.056473 39.878208
58.193485 56.894363 53.656143
58.272392 56.653893 53.444481
58.182789 56.831036 53.338726
24.966459 61.754196 41.70348
24.894592 61.852512 41.606472
58.156628 57.089008 53.921715
18.195639 62.020287 44.48864
18.121477 61.988197 44.563122
18.11348 61.924805 44.479725
18.044186 61.921082 44.570751
23.953363 61.593166 39.94791
15.658086 58.726063 54.003643
15.703859 58.623859 53.902988
15.726393 58.809521 53.996899
15.806713 58.938309 54.01416
15.94226 59.044285 53.975197
6.4635406 24.82449 37.171776
17.06555 60.773354 54.14764
16.146225 59.252483 53.948307
17.032053 60.589634 54.07827
16.901443 60.454369 54.089237
16.828819 60.340057 54.077862
16.766838 60.17535 54.036892
16.647217 60.039581 54.040451
16.573551 59.930725 54.030891
6.0555372 25.288761 38.515274
16.498701 59.789169 54.003555
16.367304 59.652534 54.012424
16.293468 59.492706 53.976784
16.404613 59.377029 53.842758
23.950512 59.906281 39.304577
33.429405 59.942604 49.113884
33.466053 60.067932 49.048237
33.31892 60.020309 49.114441
33.325382 60.186867 49.049461
33.459129 60.199711 48.997684
33.406845 60.311558 48.981853
33.269417 60.357315 49.026131
33.372292 60.438911 48.968678
17.89749 61.939014 44.729118
17.793373 61.829414 44.713814
17.899233 61.863739 44.646282
17.975586 61.932816 44.653709
17.871231 61.767952 44.548611
17.9617 61.86076 44.581039
18.012888 61.84058 44.480495
17.975203 61.733315 44.322865
18.100269 61.871601 44.378159
17.326714 61.178883 54.144783
18.060953 62.01622 44.655018
23.955946 61.376259 39.92403
21.802536 58.81279 39.741444
22.708326 60.18927 39.453869
22.605322 60.387108 39.355331
58.645554 56.757858 54.920399
22.743389 62.044376 39.253796
22.732271 61.872429 39.313354
22.869633 61.803078 39.487637
22.729786 61.661743 39.37698
22.620834 61.751354 39.222652
58.84449 56.299191 54.890465
58.885208 55.667252 54.244587
59.012707 55.672947 54.649601
58.910088 56.140972 54.880455
58.97522 55.980953 54.870621
17.73391 61.698822 44.62788
57.755894 58.374882 54.792542
17.170235 60.259129 44.078686
17.050631 60.111897 44.204529
17.143776 60.345795 44.210518
17.130997 60.102409 44.031746
58.399605 56.472149 53.715206
23.978251 60.910515 39.770103
23.810505 60.859814 39.773083
23.81362 60.969131 39.82642
15.576679 58.429691 53.889614
5.9402018 25.655418 36.848274
22.794708 59.741295 39.662785
22.951572 59.626888 39.685596
22.746775 59.624485 39.748127
22.913548 59.840172 39.59726
22.715733 59.86042 39.590309
22.823589 60.018993 39.534168
23.044119 60.005142 39.540581
22.607719 61.959969 39.135853
21.652784 59.39341 39.197876
21.752153 59.309055 39.37674
21.615526 59.249065 39.287472
21.828585 59.481792 39.300381
21.759106 59.622288 39.104256
18.455837 58.909897 42.698307
18.346014 59.085964 42.668701
18.233295 59.213104 42.708359
23.714453 61.052635 39.876709
23.8911 61.11779 39.86718
23.708946 61.208546 39.914719
23.852589 61.263657 39.912003
23.935322 61.244305 39.898712
24.032461 61.216644 39.881374
24.077641 61.072285 39.827011
17.253973 60.749969 54.025284
58.579746 56.086987 53.779991
21.980272 59.18848 39.69939
23.99086 59.514702 39.350094
23.884491 59.572044 39.324955
23.859896 59.453125 39.368599
23.965961 59.370846 39.41177
23.852707 59.31361 39.427017
23.838743 59.202705 39.491154
23.741364 59.123016 39.565208
21.534472 59.263931 39.19133
21.501026 59.350338 39.085979
22.633236 60.0009 39.495781
21.373789 59.317619 39.013958
21.444725 59.426941 38.980053
21.571539 59.497375 39.029659
21.902582 59.825356 39.06868
22.008694 59.689095 39.291817
21.586803 59.666805 38.913067
21.744574 59.820889 38.921593
5.789362 25.832293 37.518326
5.8570957 25.6681 37.97102
23.714315 59.590195 39.37904
23.736191 59.864662 39.344963
23.135931 60.571953 39.625015
23.305378 60.548004 39.638042
23.234907 60.664108 39.688622
18.179577 61.95393 44.389851
58.089855 57.120468 53.713158
58.469631 56.218758 53.427292
58.740513 55.795208 53.906723
18.206339 61.941021 44.218307
18.068985 61.702 44.023312
17.839294 61.474838 44.14785
17.120956 60.428577 44.338673
17.201406 60.504021 44.240524
17.170242 60.574329 44.385838
17.069355 60.439869 44.480507
17.850269 60.734032 43.309029
17.766815 60.723564 43.436676
17.844862 60.871567 43.419075
17.664246 60.617451 43.516052
17.711906 60.844044 43.627621
17.573509 60.651897 43.68372
17.544792 60.496964 43.603638
20.251671 61.743134 38.350266
20.233875 61.824978 38.434807
20.333675 61.838554 38.308964
20.360781 61.747894 38.242397
20.187325 61.745087 38.429844
20.135845 61.745663 38.538292
20.178219 61.676327 38.424137
20.123835 61.649601 38.496239
23.87501 60.76897 39.709988
24.01816 60.72403 39.668678
22.498743 59.266045 40.002979
22.400848 59.286247 39.965542
22.468243 59.361561 39.939392
22.397448 59.154305 40.027081
22.585361 59.013378 40.107227
22.540421 59.144123 40.060547
22.468706 59.04364 40.089886
22.26549 59.093273 39.989784
58.877327 55.531864 53.923302
22.12711 59.115459 39.875816
22.288445 59.23671 39.925102
23.755796 59.398895 39.408165
23.736603 59.272972 39.469563
22.650246 59.725407 39.676144
21.460491 59.542049 38.909763
21.378998 59.6917 38.766537
21.574316 59.846394 38.766586
22.518343 60.603737 39.235542
22.435387 60.385914 39.212914
23.172501 62.094063 39.588333
17.002657 60.431618 44.675667
16.990612 60.309361 44.535786
16.940111 59.910667 44.278919
16.924185 60.029411 44.423275
17.033962 59.852974 44.053123
17.177467 60.042015 43.907883
17.194849 59.884605 43.794113
17.032219 60.265266 44.383087
17.783251 60.196827 43.150291
17.89934 60.224037 42.998672
17.836065 60.074131 43.045063
17.840937 60.390011 43.142139
17.710686 60.321209 43.290199
17.663221 60.124157 43.276791
17.741951 60.044189 43.157211
17.767189 60.548409 43.324211
17.908684 60.621048 43.146194
17.237896 60.230415 43.929497
17.628206 60.427647 43.446785
17.507973 60.334923 43.555397
18.324713 59.239758 42.553253
18.181629 59.375122 42.669727
17.578728 60.232895 43.419418
18.088737 59.401924 42.765705
23.815346 61.512379 39.931107
23.761972 61.370316 39.929222
23.120008 60.755962 39.688755
23.261581 60.765308 39.74062
23.228563 60.889095 39.776272
58.779572 55.644455 53.661087
21.131111 62.08828 38.013748
21.019493 61.987808 37.954773
20.988968 62.085266 38.007561
21.138708 61.940128 37.946037
21.041794 61.857456 37.915344
23.370773 60.83844 39.788422
23.354471 60.99202 39.841282
23.498816 60.930359 39.838955
23.488728 61.069614 39.88813
23.549929 60.559143 39.628002
23.848078 60.601814 39.614048
23.753576 60.391388 39.495613
24.400982 60.408474 39.571762
24.298899 60.38372 39.510315
24.136711 60.390957 39.482864
23.36256 60.386711 39.56411
23.540804 60.336136 39.507645
23.657881 60.257088 39.437965
24.2609 60.267879 39.445072
24.114704 60.218586 39.390495
23.948812 60.291908 39.41531
23.788816 60.230354 39.395081
23.952755 60.450493 39.511005
23.893747 60.176666 39.352623
23.371742 60.69014 39.713654
23.526775 60.776611 39.758194
23.712702 60.74498 39.720398
23.996033 60.165115 39.35009
23.667267 60.905411 39.817451
23.594801 61.011703 39.875687
23.607574 61.108402 39.90527
23.759317 61.705826 39.913452
58.825615 55.551846 53.441177
17.196098 60.543251 53.972214
17.29755 60.459213 53.891769
17.057014 60.301762 53.942169
21.29126 59.441528 38.885418
22.342712 60.545654 39.055748
23.071186 62.026165 39.561394
5.7430644 25.792068 38.613228
5.5465665 26.193384 37.982357
18.259998 62.050507 44.381474
16.945665 60.179653 44.510967
16.922832 60.226864 44.646873
17.12023 60.619602 44.573578
17.070086 60.641552 44.771832
17.095236 60.812668 44.998379
17.190981 60.849171 44.686928
17.696331 61.848396 44.863934
17.660971 61.719856 44.755104
17.411158 60.275833 43.661873
17.452589 60.400356 43.67448
18.27042 59.500408 42.455635
17.967398 60.001072 42.848736
17.783321 59.90221 43.072571
21.598192 58.80183 39.565704
59.039879 55.819897 54.860977
21.970043 59.401894 39.510281
17.991497 60.253441 42.857159
59.104233 55.65839 54.851452
59.103405 55.541218 54.795227
21.374817 62.261726 38.14233
20.446421 61.840637 38.196449
21.31245 62.167114 38.087799
21.155712 62.241802 38.120342
21.012602 62.178673 38.076298
21.243275 61.563808 37.89613
21.388464 61.649963 37.929543
21.382608 61.505894 37.90406
6.8743243 24.016212 39.339729
21.207874 61.772297 37.920479
21.083202 61.614368 37.898796
21.0361 61.734619 37.901939
20.914484 61.906872 37.939583
20.92141 61.78447 37.918766
21.425449 61.825653 37.999985
23.596684 61.344658 39.93071
23.53244 61.205994 39.916809
17.089687 59.918633 53.753307
17.197252 59.831684 53.637001
17.032099 59.826267 53.733128
22.190119 59.356255 39.751003
18.688803 61.079258 53.410267
18.776001 61.03022 53.293781
18.682247 60.962582 53.359234
20.042498 59.536552 38.884163
20.171658 59.497112 38.834995
22.482456 59.810757 39.55558
18.907978 61.052505 53.096493
21.026215 59.365765 38.829929
20.899015 59.52137 38.719654
21.884926 59.98011 38.921814
23.631353 61.517105 39.920792
23.498711 61.43689 39.92218
21.827173 60.838676 38.229038
21.716576 60.698753 38.22303
21.714338 60.81258 38.144096
21.754404 60.929405 38.110271
21.609039 60.636204 38.210869
21.67417 60.536221 38.327652
21.600706 60.740772 38.140533
21.640055 60.883812 38.073254
21.523005 61.529655 37.952156
21.687344 61.01104 38.036938
21.576878 60.982544 38.014446
21.610931 61.111217 37.985744
21.445702 61.067379 37.975403
21.527246 61.236977 37.945686
21.363636 61.240482 37.926796
21.451065 61.381958 37.917858
21.723469 61.130505 38.027645
21.594425 61.37373 37.962662
21.661247 61.242111 37.988625
6.8356466 24.026024 39.589287
20.809839 61.832249 37.954178
20.804848 61.725883 37.957932
20.912979 61.637829 37.932655
20.992163 61.537769 37.917759
17.815689 59.737167 49.656853
17.741873 59.516525 49.722637
17.864971 59.628502 49.926453
17.702869 59.78257 49.352749
17.913448 60.063347 49.550972
17.663166 59.533672 49.507687
17.244949 60.768673 44.441841
16.868057 59.860115 44.409039
17.307186 60.124214 43.74575
6.7515783 24.049185 40.332573
6.7579331 24.090218 39.865734
59.157356 55.406002 54.803638
18.273281 61.928463 43.896542
18.157391 61.704628 43.756966
22.248802 60.779434 38.850655
22.421837 60.775669 39.090721
17.300415 60.487354 44.031143
17.45314 60.527298 43.779888
17.35783 60.344978 43.799671
18.049013 59.588036 42.752098
58.578392 56.905296 54.929596
21.012884 62.281906 38.179249
20.439974 61.946747 38.27977
20.557684 61.939945 38.156467
20.579399 61.798866 38.090199
20.676958 61.938572 38.059662
20.712639 61.857384 38.005524
20.795994 61.936684 37.988686
20.896109 62.018505 37.990116
19.699762 60.525909 39.157543
19.840462 60.251995 39.007732
19.627537 60.171177 39.29385
19.998001 60.493271 38.810528
23.0835 60.938519 39.724155
23.203602 61.056316 39.804939
23.353405 61.179348 39.875881
20.451916 61.763878 38.16634
20.446777 61.668453 38.18074
20.713022 61.765236 37.999809
15.875025 58.842316 53.899513
15.991511 58.67429 53.712357
16.106045 58.959553 53.803825
18.076801 60.536049 53.510056
18.304281 60.515244 53.310532
18.078386 60.327396 53.335495
18.304724 60.681156 53.464485
6.8128104 24.040705 39.694588
22.369095 59.379845 39.873672
22.511349 59.477287 39.854286
22.371771 59.524681 39.745148
22.526253 59.634937 39.725918
22.638163 59.644745 39.744301
22.404144 59.651211 39.653786
22.149857 60.459305 38.864677
23.443909 61.330891 39.914219
23.187759 61.217285 39.816269
23.408175 61.429882 39.906158
23.280659 61.388939 39.858044
23.195713 61.956879 39.668701
23.063898 61.910065 39.616829
21.655239 61.479332 38.01598
21.753595 61.233486 38.044651
21.717541 61.357155 38.037064
21.820927 61.286209 38.126747
22.60326 61.567215 39.24403
21.808327 61.142269 38.098656
21.894051 61.148243 38.210857
21.28261 61.974804 37.997169
21.5292 61.689156 37.999424
21.467419 62.031254 38.093525
6.7090163 24.047403 40.887287
22.943756 60.641537 39.564442
22.714828 60.637444 39.409157
23.587458 61.89098 39.835651
23.381649 61.947796 39.752274
23.414816 61.769043 39.827168
23.562941 61.688999 39.88192
23.41349 61.560333 39.879784
23.267977 61.688465 39.806038
23.273682 61.829639 39.759109
22.457212 61.69294 39.024471
21.770731 61.043129 38.077682
21.840235 61.011719 38.163681
21.786655 61.51062 38.154282
21.885012 61.701584 38.318626
21.960777 61.49688 38.360844
22.589912 60.916138 39.280006
21.63409 61.608471 38.040478
21.9016 61.990582 38.400333
23.129494 61.498787 39.780857
23.246851 61.554817 39.831371
23.115776 61.775036 39.701046
23.155678 61.628098 39.774292
23.037186 61.61134 39.698078
23.000248 61.464394 39.691563
23.084091 61.334126 39.757107
23.037558 61.128998 39.71917
22.973339 61.720512 39.617107
22.992418 61.833229 39.595909
22.881876 61.568027 39.561684
22.708982 61.402863 39.397202
22.883835 61.085484 39.595932
22.957331 60.973816 39.649178
22.898026 61.303417 39.604221
6.5694289 24.326859 39.981674
22.72913 61.140869 39.438351
22.981491 60.837311 39.637737
22.824575 60.887924 39.51783
22.405415 61.050339 39.027351
22.52693 61.108311 39.196819
22.597517 61.147434 39.289505
21.661974 61.81752 38.145271
22.453615 61.972607 38.965172
22.287157 61.90517 38.790108
58.131371 57.452724 45.369106
58.233128 57.647476 45.605934
22.525793 61.326298 39.173042
22.635651 61.253433 39.330826
22.285563 61.667892 38.80732
22.103186 61.678959 38.575562
22.298687 61.393101 38.838997
22.086246 61.269833 38.515236
21.927002 61.312618 38.277134
21.983522 61.153793 38.342827
22.226851 61.065903 38.749809
22.038414 61.056484 38.43681
22.119497 60.998375 38.579166
6.4836941 24.382244 40.631126
6.4236341 24.503864 40.261845
22.183399 60.911724 38.699722
22.110222 60.640675 38.702717
22.119699 60.81234 38.632423
22.030508 60.885593 38.468349
21.941881 60.983051 38.309532
21.992867 60.679413 38.522888
22.012844 60.495525 38.66787
21.922226 60.238541 38.762878
21.086931 61.43874 37.92099
21.287386 61.396847 37.903275
18.211927 60.007019 50.388695
18.227825 59.917316 50.613007
18.3545 60.131695 50.630062
17.878815 60.350964 49.204262
18.081043 60.405968 49.584198
18.058222 60.52684 49.41803
17.575857 61.708591 44.90284
17.490965 61.559319 44.881409
17.4237 60.929035 44.250462
17.708813 61.127148 43.938904
17.503878 60.75766 43.914402
17.405411 61.139393 44.521896
17.306694 60.951035 44.511482
17.294085 61.047806 44.655945
17.495298 61.408764 44.67778
17.596214 61.276382 44.333298
17.351492 61.19545 44.706909
17.565287 61.605099 44.7733
17.391396 61.416912 44.936588
17.34832 61.275639 44.829113
16.877991 60.065372 44.592236
17.475332 59.776871 43.394638
17.348978 59.91473 43.591812
17.523731 60.022095 43.411976
17.640093 59.920425 43.246456
17.654228 59.648144 43.174099
17.833216 59.458397 42.984627
17.857607 59.720963 42.966408
17.405565 59.487213 43.38644
17.587549 59.264332 43.174408
17.290375 59.662811 43.570229
17.444078 60.153629 43.560272
17.114126 58.699825 43.372974
16.912708 58.554565 43.473438
16.878326 58.656193 43.564518
58.338238 57.217091 45.466507
58.080074 57.711418 45.467495
17.207123 59.432026 43.580521
17.484606 58.583202 43.077866
58.215942 57.005642 45.205891
58.002357 57.088913 45.023853
57.899349 57.321903 45.039421
57.902111 57.632915 45.222439
58.007324 57.666763 45.356892
17.269987 60.170135 53.779686
17.104944 60.055286 53.810951
17.37682 60.329021 53.797298
17.876303 60.839928 53.763687
17.499037 60.513245 53.815193
17.358856 60.60461 53.918007
17.603725 60.370857 53.694691
17.281364 60.006363 53.688339
17.509655 60.164703 53.635677
17.7831 60.568344 53.69175
17.812799 60.292805 53.510048
18.285532 60.827965 53.568237
18.167683 60.709614 53.574356
18.448584 60.830147 53.461967
18.392803 59.959152 51.297611
18.501072 60.102303 51.346371
18.475975 60.093979 51.212872
17.281633 59.083523 49.146896
17.167734 59.088093 48.895187
17.991035 59.919548 49.8918
8.1159601 22.55743 40.769768
17.662003 61.093254 53.937382
17.88312 61.104599 53.843834
18.011436 60.693363 53.643913
18.114988 60.831856 53.658138
18.230911 60.959595 53.648712
18.393703 60.981728 53.567375
18.566547 60.969078 53.454475
18.534958 61.134113 53.535675
18.075857 60.982658 53.725883
58.470356 57.011253 45.508041
58.544041 56.724983 45.431561
58.383461 56.71228 45.197899
58.615292 56.885433 45.624104
58.642166 56.482536 45.386124
58.526451 56.535301 45.238358
58.756943 56.714989 45.737373
17.246325 61.081623 44.851849
17.200619 61.11467 45.107708
17.291098 61.251385 44.973183
17.22883 59.765614 43.685947
17.682959 60.093102 53.463039
17.482904 59.913918 53.480579
17.013975 59.679821 53.651825
16.725889 59.388412 53.645496
16.986715 59.345093 53.434277
16.860514 59.210438 53.427723
17.249914 59.666107 53.478542
17.041622 59.50169 53.514595
16.818378 59.882759 53.869751
7.4838104 23.079248 41.008896
16.290031 58.737541 53.529995
16.530319 59.016716 53.540878
16.547705 58.790371 53.357487
16.288128 58.93478 53.662827
16.165617 58.823681 53.679703
16.363789 59.153023 53.743134
16.72452 59.148224 53.48951
16.513935 59.598278 53.892754
16.097464 58.441498 53.477318
15.964556 58.164261 53.393799
58.250999 56.743481 45.052277
58.131588 56.852146 45.013348
57.91452 57.865192 45.379177
58.106564 57.916897 45.640892
58.252018 57.956112 45.854958
18.600824 60.850288 53.353401
18.484699 60.69862 53.323116
18.733021 60.906696 53.247978
18.633108 60.764347 53.230179
17.882395 60.020157 53.206367
18.185951 60.09729 52.933315
18.03038 59.871758 52.830517
17.786139 59.687347 52.937622
17.920422 59.688652 52.729916
58.113293 58.230137 45.884987
58.188156 58.412449 46.133865
58.1661 58.600399 46.230934
57.86404 58.494865 45.734314
57.991657 58.629456 45.988304
18.591839 60.2547 51.308338
18.515139 60.116245 51.548717
18.710455 60.390511 51.707912
18.686232 60.364548 51.49754
18.733406 60.472927 51.349594
18.836329 60.60387 51.556568
57.855152 58.207073 45.536236
57.695351 58.084644 45.250484
57.706551 58.274502 45.385433
18.66787 60.449959 51.113796
18.352411 59.964588 51.028549
18.512238 60.206993 51.059849
18.416943 60.127205 50.866066
18.425079 60.349895 50.486057
18.323807 60.181458 50.443481
18.536427 60.367989 50.803928
16.777287 58.995831 53.319569
17.074339 59.199936 53.217842
17.511683 59.647213 53.218994
17.208626 59.450314 53.334724
17.344788 59.373112 53.112633
17.553366 59.458099 52.954723
57.73484 58.338276 45.466476
57.74622 58.442635 45.536514
19.21958 61.143833 52.321983
18.440641 60.14732 52.426464
18.734261 60.475468 52.310265
18.565828 60.214657 51.977497
17.351789 58.727161 52.030411
17.532158 58.941269 52.014523
18.894583 60.668709 51.945988
19.091522 61.035919 51.567245
18.169075 59.672085 51.165363
18.086983 59.550583 51.527451
18.300732 59.82584 51.462635
17.89805 59.28754 51.208855
17.8174 59.200722 51.589493
18.306112 59.974121 50.787735
18.15728 59.737904 50.783157
17.946846 59.395405 50.845467
18.085617 59.741016 50.461143
17.977093 59.513851 50.566898
17.790607 59.228249 50.507065
18.748377 60.705162 50.885216
18.922251 61.177307 50.641544
19.155407 61.326401 51.093964
18.849424 60.937626 50.79533
18.942425 60.980824 51.041893
18.756622 60.885529 50.603767
18.592335 60.61137 50.565269
17.606697 58.942802 50.425056
17.485104 58.815495 50.17717
16.420488 58.510349 53.246204
16.195866 58.275761 53.273598
17.331259 59.139194 52.817669
16.97028 58.9263 53.040607
16.715843 58.717304 53.119041
16.632578 58.504723 53.010857
18.555822 60.583096 53.078636
18.740406 60.811474 53.114525
57.766945 57.827953 45.188324
57.63829 57.896572 45.077198
18.995161 60.977493 52.813866
18.820509 60.779625 52.890976
18.441723 60.297668 52.807365
18.253811 60.301025 53.115829
17.738319 59.472736 52.676552
57.699585 57.659645 45.012135
57.544827 57.646038 44.824459
57.518116 57.848495 44.903702
57.534176 58.066299 45.020584
57.444241 58.007339 44.878761
17.37541 58.907745 52.348774
16.928402 58.60881 52.705265
17.599159 59.216236 52.471096
18.944809 60.847675 52.712696
18.247959 60.02636 52.695362
18.071548 59.7444 52.476166
57.393658 57.925125 44.773514
18.844484 60.679634 52.595825
18.939457 60.745274 52.316437
6.4347281 24.354134 41.551601
57.647354 57.447563 44.825714
17.711535 59.117901 51.879765
17.679768 59.175961 52.170609
17.67021 58.973255 51.299129
57.864819 58.640175 45.833221
58.080376 58.804142 46.207615
57.468113 57.530701 44.657394
57.409412 57.74955 44.713264
16.715469 58.007202 52.255642
17.824717 59.414539 52.35257
57.734177 58.621597 45.598083
57.791702 58.683182 45.742294
57.959824 58.878258 46.056488
58.014824 58.986683 46.171379
58.021076 56.95134 44.963642
58.054138 56.833771 44.916916
57.979542 56.867413 44.857819
19.090784 60.946011 52.182556
19.093771 60.960346 51.933029
17.982141 59.488003 51.982952
18.283819 59.884075 52.125565
58.11673 58.991356 46.350746
58.499374 58.798714 47.198223
17.649912 58.946022 50.844681
58.749603 56.475014 45.56818
58.912834 56.425861 45.805622
18.672718 60.546894 52.79554
18.639437 60.424126 52.588978
18.299023 59.843853 51.770222
18.844265 60.706257 51.254902
59.055618 56.399654 46.025402
18.829365 61.243359 50.328438
18.795456 61.026634 50.50584
58.862446 56.327625 45.652794
18.625971 60.785881 50.401657
18.715734 60.942657 50.417381
18.427622 60.567631 50.200386
18.28548 60.234592 50.262081
18.159924 60.254665 49.921757
18.263006 60.551632 49.838047
18.139996 60.043003 50.127457
18.429346 60.831654 49.908901
18.210234 60.698257 49.576283
18.386648 61.028637 49.621002
17.418264 59.078693 49.467495
17.525127 59.302475 49.439728
17.415096 59.183716 49.318546
18.191681 60.890224 49.355305
18.3078 61.218975 49.274681
17.429302 59.293777 49.232536
17.233393 59.226746 48.892853
18.118191 61.658627 48.470364
17.942787 61.452324 48.325932
17.316917 61.262962 46.989822
17.361622 61.087017 47.390755
17.457787 61.433277 47.228577
17.548784 61.705685 47.059914
17.447914 61.62339 46.762691
17.428207 61.506775 47.011261
18.032736 59.801277 50.171986
17.877165 59.477638 50.235298
17.646847 59.113319 50.12859
17.706779 59.338955 49.886486
17.432888 58.899883 49.799629
17.589943 59.126503 49.873337
17.555714 59.179287 49.683475
58.954754 56.235065 45.745403
5.9301252 25.064743 42.250523
17.641432 59.368587 49.645767
17.538473 59.523037 49.243694
17.271616 59.44416 48.76535
17.38031 59.400459 49.030121
17.523281 59.848816 48.916
17.356512 60.65559 47.829071
17.182552 60.276268 47.791092
17.384903 60.366283 48.161896
17.172655 60.646149 47.367264
17.351099 60.864468 47.612209
17.550331 61.076191 47.855953
17.539734 60.715828 48.174763
17.792686 61.037193 48.406418
17.541416 61.367226 47.532215
17.772863 61.330696 48.094795
16.96064 60.104931 47.413334
16.903801 60.333786 46.94194
16.73041 59.863926 47.050507
16.903759 60.52858 46.55336
16.781933 60.240105 46.618496
16.728977 60.04961 46.766182
16.648544 59.977325 46.478054
16.618591 59.804741 46.729393
16.558088 59.58313 46.864002
16.666307 60.06818 46.187782
16.569073 59.831371 46.216755
17.019226 60.821472 46.409069
17.111931 60.878777 46.800243
16.769005 60.285172 46.336472
16.902922 60.594208 46.186943
16.622456 59.946877 45.927296
17.314739 61.434151 45.363884
17.304773 61.347878 45.13554
17.216228 61.220661 45.29726
16.838976 60.088348 44.786213
16.910839 60.293289 44.812149
17.099083 60.960915 45.376469
17.205631 61.236435 45.484169
16.944675 60.659859 45.733459
17.154263 61.137066 45.731247
16.971483 60.492241 44.926102
57.909767 56.944878 44.831169
16.781584 59.807663 44.627342
16.843235 59.691067 44.333916
16.870218 59.469955 44.107655
17.097059 59.594337 43.798023
17.755037 60.00893 49.254494
17.640787 60.459888 48.613518
18.000059 60.856113 48.992702
18.06613 60.661747 49.309277
18.147879 61.400757 48.780849
61.915874 24.457611 37.36515
61.941105 24.642717 37.420658
62.064838 24.5485 37.374222
61.759266 24.589045 37.411865
62.110538 24.324862 37.300091
61.949837 24.142008 37.285904
61.899361 24.286877 37.320168
62.085365 24.063251 37.247185
61.802139 24.15753 37.298996
61.845028 23.88014 37.251858
62.237045 23.847656 37.165115
62.041042 23.693056 37.200142
61.434177 23.91732 37.274315
61.44706 24.082726 37.283009
61.59623 24.12669 37.293835
61.573704 23.665813 37.266575
58.045685 57.341824 53.95826
61.43259 24.180676 37.29689
58.086929 57.038773 53.356266
61.478725 23.554375 37.275642
61.299618 23.632071 37.279545
16.52714 58.115242 48.592365
17.157644 59.624573 48.357418
17.863131 61.531754 48.084377
61.00193 23.787779 37.283962
61.088249 23.912075 37.278748
61.201004 23.849495 37.275463
60.987404 23.506729 37.293076
61.266613 23.33609 37.297359
60.949409 23.166986 37.328186
61.451237 23.442585 37.28017
58.356693 56.460506 53.380119
61.186005 23.996584 37.281723
60.639408 23.43923 37.299519
58.492447 56.171173 53.150669
16.701153 58.997227 47.979763
16.824211 58.911472 48.353096
16.857058 59.415073 47.894958
16.919615 59.214561 48.245445
58.556984 56.011993 53.287781
58.576923 55.992676 53.504562
58.659531 55.860767 53.646263
16.484514 59.621265 46.012451
16.463339 59.522709 46.480343
60.272465 23.284824 37.302658
60.606079 23.12327 37.322193
16.326792 59.190083 46.602478
60.428825 23.026951 37.325527
60.281017 23.008738 37.319729
60.143509 23.070168 37.299973
60.56842 22.926701 37.349796
18.262318 61.734413 48.676964
58.6782 55.791199 53.387428
58.686672 55.777164 53.200851
58.624218 55.884125 53.197853
61.285355 23.06041 37.333977
60.769176 22.907852 37.369812
61.082413 22.806629 37.405617
60.768806 23.678455 37.292004
59.993576 23.186563 37.291405
60.019783 23.012806 37.299358
59.868633 23.060989 37.293083
60.144455 22.872263 37.344292
60.407974 22.808071 37.378914
57.344406 57.653595 44.57267
57.315521 57.768799 44.59523
60.62019 22.78804 37.39106
60.777039 22.656477 37.453163
60.569206 22.665516 37.437214
59.941948 22.892166 37.329594
57.885166 57.082523 44.88781
57.725079 57.211029 44.775391
60.42403 22.570377 37.489231
60.212418 22.649195 37.445358
59.989151 22.702774 37.41573
59.825554 22.79458 37.374409
60.60915 22.533003 37.507652
17.384974 60.065575 48.434185
17.224936 60.036049 48.118935
17.02512 59.851074 47.842892
16.568222 59.155197 47.464428
16.604471 59.494499 47.151939
59.791443 22.942553 37.323112
59.828239 23.228514 37.293381
17.228807 60.968338 47.139446
61.61977 23.215248 37.270874
61.501804 22.786499 37.367821
61.264172 22.593163 37.470398
17.160484 61.117577 46.390156
59.827675 23.466755 37.328785
59.716518 23.283873 37.309807
59.53112 23.53068 37.381279
59.549393 23.737766 37.407078
59.837067 23.884443 37.380875
59.520447 23.977936 37.443184
59.655865 24.169024 37.443817
59.91608 24.121254 37.39941
59.918831 24.396975 37.432381
60.335335 24.428162 37.399899
60.269455 24.021519 37.351681
59.591759 23.36787 37.345718
60.150242 23.667395 37.322395
16.78647 59.648705 47.471512
60.379456 23.577524 37.300732
60.326469 23.752737 37.31292
59.922874 24.69025 37.454037
60.130997 24.61389 37.435356
60.113247 24.841722 37.452759
59.65443 24.68095 37.48283
60.377029 24.711418 37.437336
60.709122 23.918377 37.307457
60.513844 23.733425 37.304417
17.080246 60.981873 46.087994
16.558151 59.747471 45.682571
16.405125 59.378929 45.666786
59.408043 23.41922 37.40126
59.48024 23.278742 37.370514
59.605167 23.204056 37.333019
16.941759 60.545933 45.262264
59.299713 23.635384 37.453705
59.30999 23.899565 37.476357
59.095573 23.839911 37.519474
59.277489 24.173927 37.512516
59.495235 24.437551 37.49765
60.97081 24.011396 37.296524
60.740868 24.266745 37.350845
60.585747 24.550896 37.405842
60.843575 24.58757 37.407398
60.355633 24.936205 37.463066
60.632603 24.756697 37.442455
58.361053 57.286957 54.840683
58.288231 57.432522 54.838947
59.149502 24.001841 37.520077
59.738525 23.140867 37.300335
58.217983 57.593597 54.873962
58.712231 56.607738 54.910629
59.170555 24.481377 37.56097
59.318684 24.710754 37.539082
16.856194 59.250977 43.965736
58.932968 24.077112 37.561852
58.889668 23.818394 37.559811
61.108322 24.425823 37.363091
61.105499 24.180311 37.310677
16.957952 59.399284 43.894783
61.108475 24.686243 37.429924
57.776112 56.98735 44.690704
60.875595 24.836613 37.461605
16.488251 58.833118 44.34137
16.577065 59.670944 45.32547
16.740311 60.123604 45.495689
60.494995 24.851265 37.457825
60.619053 25.00069 37.478226
60.422974 25.069555 37.471775
16.765587 60.280724 45.978573
60.183834 25.00827 37.454723
16.72798 59.915146 45.030537
16.620544 59.583218 44.936867
60.29073 25.074774 37.459671
59.021667 24.316404 37.57402
59.479805 24.930147 37.500149
59.812515 24.919819 37.460514
58.510811 57.050411 54.937973
58.44297 57.193314 54.94545
59.022491 24.718821 37.600193
58.905869 24.518219 37.610584
58.374916 57.334187 54.952187
60.068119 22.546078 37.509979
59.881321 22.544474 37.535503
59.824497 22.672079 37.444168
58.306545 57.473404 54.958519
58.237999 57.611004 54.964409
60.014393 22.433731 37.606007
59.705902 22.621908 37.512772
59.699066 22.736523 37.429344
59.688866 22.865128 37.372284
59.624996 22.81176 37.412151
60.890327 25.030251 37.498238
58.170216 57.745903 54.968746
61.340431 25.105146 37.535782
