ply
format ascii 1.0
comment PCL generated
element vertex 627
property float x
property float y
property float z
property float nx
property float ny
property float nz
property float curvature
element camera 0
property float view_px
property float view_py
property float view_pz
property float x_axisx
property float x_axisy
property float x_axisz
property float y_axisx
property float y_axisy
property float y_axisz
property float z_axisx
property float z_axisy
property float z_axisz
property float focal
property float scalex
property float scaley
property float centerx
property float centery
property int viewportx
property int viewporty
property float k1
property float k2
end_header
67.799927 22.799999 36.300369 0.19309877 -0.52795208 -0.82703054 0.18562759
18.000002 31.200001 41.700424 -0.9946869 -0.056786876 0.085867204 0.02491487
68.399933 26.700001 36.600372 -0.65072459 -0.01655869 0.75913328 0.12570153
65.099892 42 47.700485 -0.57308418 -0.66632158 0.47706401 0.0016246936
76.733383 23.233334 60.833958 -0.75553918 0.19630447 -0.625 0.026746711
58.499897 43.5 44.700455 -0.17309299 0.16842809 -0.97039723 0.012132702
31.620001 68.099998 50.700516 0.12205575 -0.7437945 -0.6571697 0.0097626485
76.200005 23.219999 19.800201 -0.77631456 -0.23225068 -0.58599943 0.14490893
58.799896 48.900002 48.750496 -0.30746931 -0.69938403 0.64523214 0.15533592
8.7000027 22.65 33.600342 0.42718399 0.09254013 -0.89941663 0.0087222941
54.299908 56.200001 58.800598 -0.69276977 -0.51124167 0.50862753 0.092505917
18.000002 31.65 42.150429 -0.99953848 -0.030318933 0.0018761929 0.020267539
77.250023 23.249998 55.65057 -0.43494153 0.891002 0.13015877 0.15000033
49.799915 56.099998 48.000488 -0.70225888 -0.54675764 -0.45594797 0.0044668489
71.324959 27.675001 39.900406 -0.29301485 0.44881764 -0.84421861 0.013103982
58.199894 52.5 72.000732 -0.65333724 -0.34592536 -0.67341381 0.0065483171
22.799992 58.200001 38.100388 0.2134528 -0.55308574 -0.80531615 0.024431121
41.999977 70.199997 46.800476 -0.58382165 -0.39530319 -0.70914572 0.11813916
36.599983 70.199997 46.20047 -0.63892466 -0.4451108 -0.62741661 0.086988106
72.300003 16.200001 31.200317 -0.43965402 -0.88278401 -0.16551964 0.11435322
39.69997 63.700001 67.200684 0.14558654 -0.098703802 -0.98440945 0.093000069
76.633347 23.266665 55.633896 -0.40849698 -0.88972026 -0.20378445 0.13520974
61.799892 21.9 37.200378 -0.33642042 -0.94122136 0.030391427 0.037047707
52.799915 51.299999 42.780434 -0.66432965 -0.69820571 0.26678625 0.026910763
25.199982 60.75 40.200409 -0.94609606 -0.31001294 -0.093777582 0.010432241
52.799915 46.600002 49.650501 -0.92657632 -0.36050892 -0.10719007 0.0089808013
54.299908 45.075001 47.700485 -0.82881731 -0.33106187 -0.45106518 0.034243684
53.099907 52.200001 45.600464 -0.91460276 -0.053848833 -0.4007518 0.043453749
55.274906 44.700001 46.20047 -0.66098958 -0.26303068 -0.70278561 0.013899932
52.799923 64.5 43.200439 -0.86143887 0.18043987 -0.47472578 0.1310312
68.999939 19.799999 46.500473 -0.44010988 -0.82637346 0.35129797 0.0017125251
50.399914 52.799999 50.700516 -0.87532389 -0.45849967 -0.15357788 0.0053767739
54.599907 44.700001 47.700485 -0.84942585 -0.34194985 -0.4019278 0.22243457
64.499886 41.700001 46.500473 -0.57505918 -0.71523017 0.39718091 0.002425852
72.299973 31.200001 45.180458 -0.63124251 -0.72864419 0.26572636 0.0068950919
41.249939 56.399998 69.150703 -0.28775829 -0.93734211 0.19643043 0.0049695643
43.27496 63 67.200684 -0.32986602 -0.82939029 -0.45088813 0.047301441
74.400032 20.4 54.720558 -0.84277713 -0.44639322 0.30076554 0.18937863
56.699902 41.700001 45.600464 -0.69037157 -0.056546342 -0.72124165 0.013271124
69.89994 24.199999 44.700455 -0.92495501 -0.36350983 0.11099041 0.0093380297
58.199898 27.9 41.100418 -0.5329296 0.38580203 -0.75308883 0.0168838
73.399986 27.199999 34.200348 -0.52132493 0.68721312 -0.50592327 0.0038432186
53.099922 64.800003 43.200439 -0.93932837 0.0038237502 -0.34299797 0.12585211
35.899967 60.299999 57.800587 -0.10927469 -0.84937847 -0.51634806 0.0159851
57.899902 32.700001 42.000427 -0.83090502 -0.48733571 0.26851588 0.086595654
75.300003 23.700003 21.70022 -0.92676902 0.13767374 -0.34949264 0.051134832
33.599987 69.75 46.20047 0.86877918 -0.43197098 -0.24212375 0.086960644
36.150002 67.799995 66.800682 0.24783838 -0.94818777 0.19878665 0.005383071
31.65 68.400002 50.350513 0.15560962 -0.80486041 -0.57270014 0.012932803
70.379944 28.799999 41.100418 -0.54301488 0.58524871 -0.60217845 0.033020545
73.500015 16.575001 31.200317 -0.68946093 0.72423875 -0.011037892 0.13451949
18.749994 53.700001 42.150429 -0.90906906 -0.3835482 -0.16273993 0.15113588
48.299923 56.700001 58.500595 -0.69693166 -0.34101757 -0.63086712 0.130742
42.299976 70.5 46.500473 -0.43375474 -0.44833016 -0.7815733 0.12420961
11.700001 43.200001 39.150398 0.57699418 -0.81534255 -0.0478983 0.017483354
55.799908 38.700001 48.075489 -0.94171607 -0.22355779 -0.2513817 0.0090820417
37.575001 73.5 40.200409 0.047050014 -0.98485857 0.16685326 0.11214174
24.299982 61.5 42.000427 -0.85982722 -0.27775389 -0.42842728 0.091265284
70.499947 22.650002 43.575439 -0.98542428 0.073747121 0.15329854 0.026756173
75.780014 23.700001 30.720312 -0.34223887 0.88941401 -0.30301037 0.041397858
5.4000001 20.699999 33.600342 -0.92686105 -0.35800305 0.11297075 0.012845393
28.349983 66.300003 43.500443 -0.85436428 -0.50339633 -0.12904947 0.17434987
70.499954 22.199999 45.10046 -0.93198425 -0.091052398 0.3508774 0.029999573
44.871391 65.35714 72.729317 -0.4824456 -0.84982437 -0.21223775 0.0062412173
74.400009 21.75 23.700241 -0.8644498 -0.083201803 -0.49578619 0.11050989
22.399994 62.700001 44.700455 0.12134585 -0.75332218 0.64635974 0.15654035
22.799999 65.699997 46.20047 0.93054295 -0.3480019 -0.11395002 0.054482471
10.575 41.700001 38.32539 -0.887465 0.3750518 -0.26784715 0.011911696
62.999889 24.6 33.300339 -0.55235022 0.35159275 -0.75583857 0.012046129
9.9000006 39.150002 39.150398 -0.9991563 0.022205897 -0.034548119 0.012793245
73.799988 27.6 33.900345 -0.53102654 0.71173888 -0.45982444 0.0039630518
35.199997 65.699997 58.200592 0.18766266 -0.97838908 -0.086818829 0.090363555
29.099983 65.699997 44.700455 -0.15841012 -0.037572984 -0.98665822 0.20675169
21.899986 53.700001 42.900436 -0.91517991 -0.32511225 -0.23821761 0.079552352
36.749954 57 61.600628 -0.02208557 -0.96767056 -0.25124893 0.0058691353
58.7999 31.5 40.800415 -0.46179852 -0.88318968 -0.081964828 0.11473484
56.914185 54.171425 72.215019 -0.65048212 -0.40725058 -0.64110833 0.0077967006
25.499983 60.214287 39.771832 -0.98932076 -0.13390917 0.05755702 0.016810458
56.999905 26.700003 41.20042 -0.89852172 0.045981228 -0.43651399 0.053416371
52.199909 53.160004 46.560474 -0.80610323 -0.26440582 -0.52942145 0.0091872178
60.599895 22.5 36.150368 -0.52886081 -0.84866214 0.0088750944 0.012754842
22.349998 64.650002 46.20047 0.84351325 -0.50173259 0.19170214 0.066994637
62.999889 26.25 34.200348 -0.45926079 0.023262573 -0.88799685 0.035273325
23.099998 67.800003 44.400452 0.7024675 -0.65848684 -0.27006388 0.019759649
50.699913 52.200001 50.700516 -0.88418108 -0.44764486 -0.13355865 0.0070421672
18.000002 30.15 42.150429 -0.97779572 0.063427225 -0.19973096 0.022916703
2.3999999 29.700001 60.00061 0.18111129 -0.0042494182 -0.98345345 0.17510988
21.299997 63.599995 43.200439 0.1013435 -0.8671909 -0.48755452 0.10260942
78.15004 24.75 27.150276 -0.88500053 0.46544939 -0.011444197 0.0037260607
54.799908 62.300003 38.13372 -0.28838587 -0.430911 0.85507268 0.05256328
32.279976 64.199997 45.900467 0.31249338 -0.54604298 -0.77729326 0.010560456
52.799923 64.549995 44.300449 -0.90473425 0.29600555 -0.30632779 0.10575579
76.671432 24.171431 18.77162 -0.8225131 -0.1657521 -0.54405725 0.16219261
28.799973 60.900005 46.20047 0.59258819 -0.53683019 -0.60054356 0.0033268323
57.299896 57 39.675404 -0.49060744 -0.74406832 0.45350486 0.0086061973
38.099976 63.150002 65.700668 0.39226854 0.079404064 -0.91641724 0.064606629
1.6285715 29.142859 40.200409 -0.34551364 -0.90060377 0.26369146 0.10912925
59.271324 28.628572 40.800415 -0.58604938 0.50925201 -0.63024485 0.079155289
75.900009 22.200001 20.700211 -0.75048506 -0.31092018 -0.58318156 0.14928843
13.200001 33.900002 33.700344 0.12095805 -0.87788826 0.46333709 0.010247997
76.800049 22.5 59.700607 -0.89509648 0.4222762 -0.14312629 0.04693025
73.725021 17.174999 43.200439 -0.82049233 0.57075393 0.032128211 0.17137979
23.099983 52.200001 40.200409 -0.91745394 0.37199572 -0.14105868 0.02279192
75.600006 19.799999 22.200226 -0.76780313 0.63344431 0.096055463 0.15065536
64.799889 33.599998 37.500381 -0.83234966 0.20952341 0.51312172 0.040920947
61.799889 47.099998 49.2005 -0.76151454 -0.62230414 0.181199 0.14723974
37.79995 57 61.200623 -0.077983774 -0.97313297 -0.21663512 0.0037835259
42.299965 63.599998 64.680664 -0.37894714 -0.92143971 0.085720934 0.20727645
70.199944 24.128571 45.771893 -0.90188146 -0.38390803 0.19805157 0.0087411422
69.89994 24.200003 44.250446 -0.93299353 -0.35322919 0.068935856 0.0096413642
55.799904 43.200001 46.500473 -0.72272998 -0.16954885 -0.67001086 0.011320132
46.199955 64.5 72.780739 -0.54276836 -0.8083899 -0.22783373 0.0070964801
28.199984 65.25 41.700424 0.86302793 -0.39149356 -0.31924209 0.051345315
70.199944 24.199999 46.20047 -0.89219749 -0.39046663 0.22697911 0.0097178863
4.2000003 23.25 35.700363 0.89331651 -0.27081683 -0.35866952 0.097068392
35.699966 65.271431 45.771893 0.43628308 -0.66143078 -0.61005437 0.042489249
54.299911 58.799999 38.700394 -0.036152605 -0.24231309 -0.96952426 0.036827423
33.599957 55.799999 67.500687 0.1808316 -0.97132587 0.15435655 0.0099866195
28.799974 61.200001 45.900467 0.57142282 -0.51191163 -0.64142221 0.0040731928
48.299938 67.199997 45.000458 0.44514355 -0.44973052 -0.77433181 0.13173883
6.1333332 19.199999 43.700447 -0.22340588 -0.93699116 0.26858407 0.070646986
23.899988 60.849995 37.500381 0.44487563 0.16282006 -0.88066751 0.024159377
11.1 43.200001 44.700455 -0.69785571 0.52304584 -0.48930621 0.0033154215
41.199978 66.799995 67.200684 -0.47130269 -0.85961437 0.19732454 0.0025456352
64.424881 32.099998 35.700363 -0.33348301 -0.83633929 0.43511575 0.069602162
44.19994 59.199997 59.200603 -0.19592561 -0.65060449 -0.73370773 0.072779655
4.5 26.700001 36.300369 0.59973192 0.58945268 -0.54117197 0.0878454
9.6000023 19.200001 40.500412 0.40270856 -0.87163466 0.27942607 0.0031038909
58.399994 56.700001 43.200439 -0.45431685 -0.83908004 -0.29923373 0.021633703
8.2000017 18.75 34.700352 0.44356513 -0.83886021 -0.31553712 0.01261708
50.999912 51.299999 51.15052 -0.91812307 -0.39039516 -0.068129264 0.0040388289
71.249962 32.099998 40.800415 -0.099729791 -0.76122022 0.64077902 0.0057745213
5.7000008 21.299999 29.700302 0.80354476 0.30158675 -0.51318729 0.13515091
19.499994 44.25 46.500473 0.94322169 -0.29898441 -0.14471054 0.20761707
66.299904 36.299999 41.100418 -0.79477805 -0.35023984 0.4956409 0.013394351
58.259899 31.5 40.740414 -0.59532279 -0.8016206 0.054729506 0.090896524
5.2500005 30.9 41.700424 -0.068115793 -0.95150274 0.30000454 0.010364586
65.849899 31.5 36.150368 -0.39917716 -0.91229534 0.091513582 0.0085940044
42.299965 63.599998 63.750648 -0.61551762 -0.76777589 0.17792784 0.22990257
63.749882 40.200001 37.650383 -0.55754387 -0.59697855 0.57685488 0.013871412
52.499928 64.199997 43.650444 -0.77560407 0.41674787 -0.47408801 0.16534247
29.099974 61.200001 46.20047 0.60200757 -0.52918547 -0.59795445 0.0029293241
36.599987 70.680008 46.20047 -0.55572522 -0.46261197 -0.69076741 0.074494101
69.299942 33.200001 41.300419 -0.42304653 -0.69253206 0.58432102 0.0031819274
65.099899 25.200003 50.700516 -0.49345288 -0.67751509 0.54541492 0.0012496585
68.999939 25.200001 51.120522 -0.70312178 -0.70016199 -0.12406833 0.19935524
48.899921 56.400002 57.900589 -0.80811989 -0.12854025 -0.57482141 0.072034396
36.299988 70.199997 46.725475 -0.64039665 -0.56577194 -0.51941723 0.066715389
70.79995 28.200003 40.500412 -0.38832033 0.52418071 -0.75791949 0.016293205
9.1000032 22.200003 33.700344 0.45488527 -0.0062941462 -0.89052778 0.010309772
38.699978 70.199997 46.20047 0.81095141 -0.26025492 -0.52404708 0.028065326
60.299892 40.5 43.800446 -0.22070427 0.47421318 -0.85229778 0.13702434
54.771336 48.171425 45.300457 -0.38469753 -0.34242874 -0.85717571 0.013598807
55.349903 47.200001 50.30051 -0.99296963 -0.11678577 -0.019298324 0.021157319
17.999998 59.099998 45.300461 -0.76711869 0.46790087 -0.43885946 0.049570818
23.699999 64.5 51.000519 0.57991558 -0.63564163 -0.50956613 0.0072370199
32.849968 60 57.800587 0.11324985 -0.77953893 -0.6160304 0.025185877
61.799885 36.799999 35.40036 -0.012117698 0.5061478 -0.86236167 0.025132813
11.400001 42.599998 43.200439 0.54540062 -0.67976946 0.49035865 0.045703385
55.7999 49.650002 44.700455 -0.094835296 -0.38665393 -0.91733587 0.032871407
38.099979 64.199997 66.10067 0.42564207 -0.37802038 -0.82214922 0.10456948
18.24 57 38.22039 0.42145929 -0.75482613 0.50260276 0.010861867
46.199963 69.599998 47.100479 -0.56398958 -0.55525625 -0.61123335 0.038187936
57.299896 56.400005 44.300449 -0.091847092 -0.98701572 -0.13177341 0.11278644
5.7000008 21.9 49.680504 -0.3402769 0.8673085 -0.36330101 0.22171731
36.299999 66 58.200592 0.08834663 -0.99003124 -0.1096945 0.13226558
14.1 50.25 46.650475 -0.96434283 0.26396719 -0.019085677 0.0041389801
32.849979 62.25 56.100571 -0.038245242 0.14390135 -0.98885268 0.13183205
2.6999998 29.4 39.780403 0.047418181 -0.9237566 0.3800334 0.058298808
56.899899 56.299999 45.600464 -0.28335339 -0.51935804 0.80621219 0.12724142
23.999989 59.700001 37.500381 0.36787152 -0.21114017 -0.90558845 0.035137881
11.1 43.740002 45.060459 -0.69701064 0.50373936 -0.51031631 0.0024691459
75.300003 19.799999 21.900223 -0.63813859 -0.35500818 -0.68318981 0.13256322
15.6 55.200001 41.25042 -0.97723281 0.20938019 0.034294501 0.022627326
3.7499995 29.4 39.000397 0.11961298 -0.84190565 0.52620101 0.010081205
54.771332 49.671425 44.700459 -0.26312256 -0.50361079 -0.82288677 0.057539329
28.199984 65.25 42.750435 -0.92550945 0.37718698 0.034091502 0.1327118
47.399937 67.650002 44.700455 -0.56038195 0.0046509961 -0.82822132 0.1252671
6.3000002 23.325001 46.20047 -0.7721048 0.59988791 -0.2097346 0.021712298
4.6199999 33.150002 39.750404 -0.16175134 0.73085231 -0.66309232 0.0025775039
70.424942 24.674999 47.700485 -0.92265898 -0.37983763 -0.066511177 0.023615325
67.499924 26.4 51.600525 -0.77416563 -0.5819692 -0.24895674 0.23266533
34.499989 64.5 65.700668 0.16889279 -0.95988578 -0.22381796 0.078526415
73.200005 19.5 55.800568 -0.67736578 -0.73558748 -0.0093100965 0.20617625
21.599987 53.279999 43.680443 -0.9690671 -0.2177825 0.11610255 0.094162218
67.499924 28.200001 34.500351 -0.78193736 -0.12457405 0.6107825 0.0080541968
22.499985 52.628571 45.086174 0.92227286 -0.20893332 -0.32520711 0.013808325
63.899883 37.200001 36.600372 -0.61854267 -0.26840085 0.73848891 0.011835312
38.099976 64.5 56.700577 -0.97894579 0.068930477 0.1921294 0.14681277
64.799896 20.16 38.160389 -0.38885647 -0.66501254 -0.63761199 0.050076675
43.349941 59.400002 58.650597 0.13404875 -0.7811169 -0.60982561 0.050136801
56.099903 59.700001 39.3004 -0.74379051 0.19698112 0.63872856 0.021121237
62.69989 23.280001 33.000336 -0.54704171 -0.19778553 -0.81340414 0.04656833
10.2 40.650002 40.650414 0.9616769 -0.27292109 -0.026298672 0.023655798
10.5 33.299999 36.150368 0.46184999 -0.87950432 0.1147465 0.046710122
61.328461 42.685711 48.000488 -0.32803774 -0.53601187 0.77787054 0.10052279
29.699974 58.799999 58.200592 0.4745205 -0.62858158 -0.6162107 0.053869724
30.599974 59.400002 58.500595 0.48478088 -0.54724324 -0.68228465 0.15903382
63.299889 23.4 32.40033 -0.42774451 -0.11852122 -0.89609569 0.05659461
56.699902 54 72.600739 -0.61251837 -0.33587345 -0.71554887 0.0063840435
46.424957 70.199997 46.20047 -0.51104844 -0.67255265 -0.53525925 0.031565756
71.699966 33 47.700485 -0.64330763 -0.70582056 0.29660177 0.0052500837
71.349968 22.699999 46.650471 -0.94366962 -0.26633012 0.19635636 0.033998411
78.000023 25.200001 48.15049 -0.99952465 0.026785882 -0.01526834 0.063185371
74.400002 21.75 23.400238 -0.85771912 -0.08040601 -0.507792 0.089094102
47.199951 65.099998 52.650532 -0.31953409 -0.732099 -0.60160536 0.0043375315
33.779968 60.18 58.200592 0.21594468 -0.77088529 -0.59925264 0.028778508
15.300003 33.299999 34.200348 -0.62515706 -0.51632947 0.58530557 0.038340148
16.200005 41.25 45.000458 -0.28087434 -0.6158374 -0.73610729 0.25625211
29.849976 62.700001 45.750469 0.50310463 -0.47681764 -0.72078478 0.010899525
75.600006 24.1 57.700588 -0.79367983 -0.22224435 -0.56628591 0.060196981
56.399902 54.900005 72.300735 -0.65249348 -0.41475946 -0.63421351 0.0084699197
56.819897 51.18 44.280449 0.23843987 -0.61923933 -0.74812371 0.085264042
53.099926 64.800003 44.100449 -0.93972564 0.11227761 -0.32296973 0.12833488
10.700004 19.199999 37.200378 0.43518609 -0.89157826 -0.12530451 0.0092331832
9.9000006 38.700001 38.700394 -0.99539334 0.0035303896 -0.09581013 0.012968472
43.799957 63 66.150673 -0.44772753 -0.85425949 -0.26416045 0.23136918
70.499954 23.4 50.17551 -0.78946853 -0.60318696 0.11359948 0.18751547
70.41423 24.085714 46.629047 -0.88415575 -0.41861579 0.20743552 0.0078239869
48.599922 56.700001 58.650597 -0.78460854 -0.099371091 -0.61197609 0.1476503
18.599998 41.700001 44.700455 0.90931779 -0.099855199 -0.40394321 0.13620555
57.599895 57 39.900406 -0.51785737 -0.75848973 0.39562225 0.008057246
59.399891 55.200001 41.100418 -0.93986487 -0.20890692 0.27020714 0.01978318
53.799908 51.200001 44.700455 -0.69896209 -0.57082599 -0.43082428 0.11725164
23.4 64.199997 50.700516 0.64890516 -0.59928358 -0.46880838 0.0055152806
5.1000004 26.700003 36.900375 0.74414945 0.48670366 -0.45755997 0.044705637
48.299931 59.400002 59.700607 -0.69878399 -0.27566123 0.66008466 0.095043577
70.799957 33.599998 47.700485 -0.50258261 -0.80239582 0.32182562 0.010290937
32.25 68.099998 50.700516 0.096563168 -0.73716855 -0.66877365 0.0089884941
61.19989 47.099995 47.700485 -0.85529643 -0.35943735 0.37319282 0.012167185
39.749947 56.700001 62.250633 -0.156803 -0.95984089 -0.23263341 0.0059872093
17.819998 54.780006 37.200378 -0.37030217 0.096632645 -0.9238714 0.017309152
52.799915 61.650002 45.750465 0.15750305 -0.84705991 0.50762409 0.13567469
40.349945 57 70.200714 -0.29304981 -0.92052519 0.25837004 0.005314101
58.349899 33.75 36.300369 -0.35311896 -0.039948031 -0.93472517 0.021677313
50.69994 68.699997 45.000458 -0.21468198 -0.89963561 -0.38022026 0.0203247
62.099892 26.700001 34.500351 -0.36465549 -0.062459439 -0.92904526 0.024971841
14.250004 42.200001 45.800465 -0.1598658 0.39600462 -0.90422529 0.036535513
24.299984 57.599998 40.650414 0.44983882 -0.89126688 0.057345312 0.017729241
45.299938 63.900002 46.20047 -0.24266393 -0.55387622 -0.79645169 0.036083441
73.700012 17.099998 44.250446 -0.27221823 0.95973831 -0.069279343 0.16679581
17.219997 48.120003 47.100479 0.036656223 0.1709948 -0.98458987 0.10142922
9.3000002 30.199999 33.100338 -0.89089978 0.31310627 -0.329032 0.017346153
32.22855 65.271431 45.300457 0.45464733 -0.41665298 -0.78720778 0.051136032
73.200005 19.5 56.280571 -0.63475502 -0.7268725 0.26218766 0.028979648
24.299988 60.150002 37.500381 0.49785393 0.023936613 -0.86693048 0.04520889
69.000008 19.5 45.300461 -0.33741292 -0.88093722 0.33181649 0.063747749
73.79998 28.200003 40.200409 -0.36748964 -0.77063942 0.52064025 0.023955248
21.599993 50.700001 41.280418 0.41686261 -0.89315623 0.16881198 0.028757449
33.299973 64.574997 45.900467 0.1264928 -0.5366962 -0.83424026 0.028664533
32.099976 67.199997 44.25045 0.90616882 -0.4125824 -0.092918105 0.1607607
74.300034 21.799999 57.100578 -0.51260787 -0.64842564 0.56282973 0.016457496
23.699987 62.25 42.000427 -0.77733862 -0.22617473 -0.58701771 0.13198462
67.199921 28.65 34.200348 -0.72232234 -0.15918344 0.67298669 0.0087990239
59.099895 46.799999 49.2005 0.67281276 -0.11020875 -0.73155791 0.072660826
19.799994 41.099998 40.500412 -0.8436203 -0.31616911 -0.43398371 0.0092309956
43.799953 62.400002 59.700607 -0.53111655 -0.81335074 0.23743598 0.15467267
28.799982 66 42.700436 0.3028625 -0.94870287 -0.09075927 0.25322825
39.899971 63.900005 66.900681 0.0046095569 -0.35448655 -0.93504971 0.12089398
55.799904 43.650002 46.20047 -0.6696462 -0.19806403 -0.71578246 0.012519982
19.499994 45.728573 45.086174 0.81514335 -0.26824394 -0.51340681 0.014780959
41.099968 63.900005 66.900681 -0.129585 -0.75529808 -0.6424427 0.075702786
40.799953 65.699997 46.800476 0.24575822 -0.47638842 -0.84419012 0.047834005
38.812473 63.674999 66.788185 0.50014913 -0.077528186 -0.86246175 0.087682314
13.200003 42.075001 45.600464 -0.37199882 0.36372575 -0.85400259 0.084568121
69.749947 24.7125 51.750519 -0.55766809 -0.8286503 0.048424508 0.23489746
14.700004 30.299997 32.700333 0.56608748 -0.088338934 -0.8195982 0.016416894
25.799995 67.5 46.500473 -0.039130822 -0.97502124 -0.21863747 0.057248861
18.9 60.171429 38.271816 -0.84372926 -0.090673618 -0.52905512 0.022651669
46.499943 67.199997 46.650475 -0.97166008 -0.23142888 0.048137926 0.091554649
48.299923 57 58.200592 -0.66430831 -0.19996756 -0.72021347 0.14717272
56.849991 57.199997 42.700436 -0.35660741 -0.71195716 -0.60493642 0.16636027
10.200001 38.25 40.650414 -0.89151114 0.22660562 -0.39224708 0.058008917
27.299988 66.599998 44.700455 -0.70976102 -0.69948041 -0.083465301 0.18676734
18.766663 31.633335 36.800373 -0.78090149 -0.51283681 -0.35663882 0.021857042
23.699989 60.599995 37.200378 0.33452246 0.097653352 -0.93731457 0.026756009
11.233334 42.733334 38.233723 0.73789561 -0.62334287 0.25875428 0.015900552
63.299885 37.5 36.300369 -0.39487329 -0.36656162 0.8424415 0.022353172
76.200012 24.9 33.800343 -0.35799497 -0.90146023 0.24332914 0.06602075
18.000002 32.199997 41.25042 -0.92879677 -0.12880878 0.34748378 0.037580572
55.199902 55.200001 57.750587 -0.33328402 -0.91035336 0.24531312 0.070751898
23.4 64.199997 43.650444 -0.87137699 -0.48026842 0.10022145 0.18403198
25.199984 59.700001 38.400391 0.86305332 -0.088440448 -0.49731007 0.032173496
73.725014 17.174999 43.650444 -0.5694108 0.81909925 -0.069625534 0.18799448
6 20.25 36.825375 0.87897921 -0.042979974 -0.47491932 0.17452343
56.099907 62.700001 41.700424 -0.75980121 -0.62817419 0.16762848 0.0097070653
19.199999 27.6 34.650352 -0.98388082 -0.065611407 0.16635425 0.044828672
6.1666665 18.766666 32.300327 -0.29092878 -0.92896718 -0.22886762 0.1039464
21.299997 62.700001 37.200378 -0.22716829 0.54810989 -0.80496591 0.046077725
13.650005 24 36.000366 0.15223402 -0.62561053 -0.76513809 0.12285963
57.779896 48.299999 44.700455 0.064336605 -0.16049092 -0.98493832 0.0081905071
5.7000008 20.174999 46.575474 -0.14729767 -0.92386383 0.35324073 0.08663182
23.91427 61.714287 42.171856 -0.79364401 -0.36728892 -0.48500296 0.10196178
29.999977 63 45.600464 0.4513208 -0.4611145 -0.76399153 0.014458533
10.2 40.650002 40.200409 -0.97879589 0.20416853 0.016547812 0.016194938
25.199984 60.599995 38.400391 -0.87051505 -0.18488711 0.45609254 0.029227937
45.699936 57.699997 59.200603 -0.28580758 -0.6664077 -0.68863261 0.088859655
31.799976 64.5 45.600464 0.37810054 -0.50154644 -0.77813303 0.016848996
71.699966 26.700003 35.100357 -0.49519897 0.60440129 -0.62408096 0.003628734
17.700003 28.65 38.700394 -0.95752442 0.091258898 -0.27353039 0.067437723
9 29.700001 33.750343 -0.96540272 0.17336243 -0.19478986 0.013403681
2.7 25.650002 57.900585 -0.91369331 0.17157309 -0.36841166 0.06042438
63.839882 40.799999 39.120399 -0.51274198 -0.84245628 0.16541767 0.013682616
61.799889 42 47.700485 0.2619088 0.34276536 -0.90217274 0.14580137
8.4000006 37.5 41.400421 -0.60181463 0.53465927 -0.59326094 0.0052442416
5.7000008 29.4 39.000397 0.3351132 0.64120692 -0.690328 0.040759254
36.728535 66.171425 46.20047 0.43787116 -0.39187923 -0.80913502 0.075842805
72.300003 17.700001 44.700455 -0.35776377 -0.92455411 0.13116719 0.20409596
41.999981 66.900002 52.200531 -0.19502753 -0.72126865 -0.66463196 0.0057849074
53.799915 58.200001 39.000397 -0.28056988 -0.1430569 -0.94911295 0.042531852
50.099915 55.200001 48.600494 -0.79196113 -0.45824561 -0.40349546 0.0078143589
19.799992 47.099998 45.000458 0.74169779 -0.39525324 -0.54190326 0.021146933
63.599888 24.299997 32.700333 -0.4624947 0.16718175 -0.87071747 0.043599576
55.799908 39.599998 48.000488 -0.90893602 -0.12354185 -0.39821196 0.11529244
7.6285729 25.628572 33.900345 0.31550562 0.33208188 -0.88891947 0.043584265
32.849976 65.699997 45.600464 0.16984586 -0.37063742 -0.91311562 0.067787498
78.300034 25.5 26.700272 -0.9295513 0.36869287 -0.00013193702 0.0030949055
58.799896 56.279999 43.620445 -0.62193209 -0.73555744 -0.26861811 0.026075983
71.700012 17.4 42.200428 -0.24674563 -0.8700375 0.426792 0.2053543
74.700027 18.6 26.250267 -0.6575014 0.71797818 0.22847158 0.11932577
14.27143 33.600002 33.086052 -0.27461612 -0.7572515 0.59258437 0.033436373
72.79998 30.699999 44.700455 -0.61331832 -0.75838518 0.22066379 0.0077940002
69.799957 22.633333 52.633869 -0.79090351 -0.55878252 0.24946702 0.16459553
58.199894 56.700001 40.200409 -0.60966009 -0.69902605 0.37373412 0.010402866
76.700066 24.75 60.700619 -0.82038635 -0.028173186 -0.5711152 0.0089417389
35.849953 56.700001 69.200706 0.073171631 -0.93490821 0.34726423 0.0037075945
68.999939 24.9 49.800507 -0.74020964 -0.61840159 -0.26394919 0.026276143
36.599964 67.650002 45.10046 0.83642495 -0.53153002 -0.1336759 0.18470675
71.700005 16.5 38.700394 -0.26794854 -0.95265943 0.14367917 0.10860386
64.199883 37.5 36.900375 -0.66537678 -0.24287567 0.70589316 0.010904079
14.271431 25.585714 30.600311 0.29627898 -0.31282061 -0.90242016 0.073528163
58.7999 31.200003 38.400391 -0.5908066 -0.806705 -0.013215281 0.12753603
57.299908 29.700003 42.30043 -0.77391893 0.2805247 -0.56776351 0.044630706
28.499977 61.5 45.600464 0.53705698 -0.47811219 -0.69496661 0.0040817857
11.700001 35.25 36.150368 -0.79336804 -0.2466352 -0.55654126 0.10893311
14.250001 42.200001 42.10043 -0.15707602 -0.96984917 -0.18633226 0.15443677
10.8 35.400002 37.200378 -0.7458809 -0.35125566 -0.56593382 0.08769083
17.250004 34.600002 41.300419 0.94929391 -0.14454684 -0.27919054 0.07913281
22.724998 63.599998 37.800385 -0.039144814 0.43567514 -0.89925236 0.10277423
36.749989 68.700005 50.30051 0.018160468 -0.88635403 -0.46265176 0.011290257
33.749992 68.699997 50.10051 -0.011956709 -0.87232178 -0.48878589 0.020562811
19.799997 39.128571 40.714699 -0.88570756 0.15956527 -0.43596008 0.0083700903
17.400003 26.1 41.400421 -0.67260677 0.39874759 -0.62337828 0.013457662
57.799896 44.25 45.10046 -0.28147194 0.027840836 -0.95916539 0.0090244347
26.849989 67.200005 45.750469 -0.17849106 -0.95403636 0.24073954 0.15706488
21.599998 64.199997 47.280479 0.74125576 -0.66630924 -0.081067443 0.010909149
5.7000003 25.65 36.750374 -0.86788672 -0.44190627 0.22691725 0.042287935
36.29998 64.199997 66.000671 -0.32979408 -0.58689022 -0.73945636 0.10094019
19.799999 63.599998 41.700424 0.51962584 -0.85365385 -0.035554945 0.020066408
12.000005 25.5 31.200317 -0.3360531 -0.74970442 -0.57009786 0.0088838302
18.75 62.200001 42.10043 0.88007545 -0.4612847 -0.11262221 0.014273451
22.5 67.199997 42.750435 0.93125558 -0.36315468 -0.029693218 0.016491545
41.219952 65.699997 46.500473 0.20886075 -0.39513651 -0.89456385 0.055736512
67.799927 33.900002 40.620415 -0.58556926 -0.59595168 0.54949999 0.0053571705
26.212492 68.212502 44.175453 -0.40356156 -0.74221611 -0.53502643 0.09446913
56.999905 27.75 42.150429 -0.98267752 0.10585162 -0.15211956 0.070195168
6.7500014 30.9 42.750435 -0.35173354 -0.87797928 0.32470912 0.08091142
69.89994 24.9 48.900497 -0.81076711 -0.45505422 -0.3682152 0.016139189
67.199921 27.6 33.900345 -0.68216366 -0.10861348 0.72308773 0.0078265592
70.199951 21 44.700455 -0.90978479 -0.22202079 0.35071126 0.073843539
67.274918 21.599998 47.700485 -0.48122463 -0.77102798 0.41705963 0.0013777674
12.300006 25.200003 31.200317 -0.29651654 -0.76942813 -0.56573689 0.011085224
63.719887 27.299999 52.200531 -0.50057167 -0.65552276 0.56543612 0.00071146828
53.749908 54.75 50.30051 -0.9417454 0.30805832 -0.13496572 0.15148626
49.799938 64.199997 52.500534 -0.38550508 -0.73221791 -0.56146473 0.0042089946
11.400001 35.399998 36.300369 -0.82407373 -0.29248393 -0.48513469 0.09422002
18.899996 44.700001 44.700455 0.75883043 -0.15091117 -0.6335631 0.025932483
17.999998 43.650002 44.100449 0.49827775 0.0068501807 -0.86699039 0.026533457
4.6500001 29.4 39.000397 0.027194001 0.79478192 -0.60628563 0.011421658
21.824987 50.324997 44.700455 0.85109526 -0.36664107 -0.37578076 0.019516852
22.799999 64.800003 44.25045 -0.92780006 -0.33467898 -0.16485502 0.068065926
39.824944 57.075001 70.200714 -0.25370398 -0.92323226 0.28857669 0.0068683312
35.249969 67.199997 42.600433 0.15845075 -0.66974503 -0.7254895 0.023881078
30.899996 66.900002 51.300522 0.12484145 -0.70564258 -0.69748342 0.0048987404
18.825001 28.724998 37.200378 -0.88410074 0.24521823 -0.3977862 0.0066298521
32.25 68.400002 50.400513 0.12359538 -0.80026871 -0.58676594 0.013499729
75.675003 27.9 32.175327 -0.43132916 0.85001582 -0.30237103 0.020473888
49.799915 55.799999 48.300491 -0.71698976 -0.52785909 -0.45529163 0.0062106587
51.299931 67.199997 38.400391 0.30547443 0.038765125 -0.95141083 0.093447745
52.349915 57.630005 58.620598 -0.42987069 -0.81718075 0.38396189 0.044223681
28.199987 64.5 44.400452 0.81102139 -0.017581776 -0.5847522 0.14078613
12.728571 33.899998 33.686058 0.20201476 -0.86837721 0.45289177 0.010733618
19.199999 60.100002 43.700443 -0.9849543 -0.16969173 0.032704752 0.10469055
67.499924 34.200001 40.575413 -0.60391217 -0.57424909 0.55274594 0.006158635
16.799999 56.700001 39.3004 0.65923125 -0.68044478 0.32001406 0.016711697
68.399933 19.799999 45.600464 -0.44615394 -0.82675236 0.34267661 0.0019323363
46.349934 66.799995 42.700436 -0.29133826 -0.55944145 -0.77598155 0.079536468
52.349926 63.75 43.200439 -0.66560853 0.44934079 -0.59586746 0.19713268
19.199999 29.271427 36.728943 -0.94049436 0.18495977 -0.28506178 0.010861142
64.799889 30.1 33.100338 0.14205906 0.48778924 -0.86132509 0.026275354
63.599884 41.099998 39.780403 -0.41725931 -0.90878701 -0.00095933065 0.012172959
19.799999 63.599995 42.000427 0.50697404 -0.85524291 -0.10740981 0.021278024
24.299986 61.200001 37.800385 -0.56443006 -0.28926107 0.77314085 0.020509277
55.499905 43.200001 46.800476 -0.77333814 -0.20339826 -0.60048091 0.0085970871
19.799994 46.200001 45.300461 0.81754774 -0.3374131 -0.4666563 0.012564945
72.599976 27.299999 35.100357 -0.47859472 0.67358202 -0.56323564 0.0033684974
46.499931 57.900002 58.200592 0.11112092 -0.23007502 -0.96680796 0.1286952
9.9000006 38.159996 38.700394 -0.99709815 0.01295748 -0.075015917 0.01483377
50.899937 68.400002 45.200459 -0.26594746 -0.87731361 -0.39949068 0.02499974
69.899948 23.700001 43.800446 -0.9632532 -0.26136163 0.061913192 0.019709872
51.674915 57.675003 58.200592 -0.21068658 -0.82352775 0.52670038 0.03958625
36.749954 57.899998 71.100723 0.11329619 -0.86645198 0.48623541 0.0049037966
25.799995 69 43.200439 -0.14804362 -0.89473289 -0.4213503 0.055223659
58.249897 33.150002 42.750439 -0.98819339 -0.14865905 -0.037071839 0.10566457
73.800026 17.199999 30.750313 -0.84897774 0.51545286 -0.11638419 0.094298758
53.999905 54.75 50.700516 -0.9125073 0.34633616 -0.21767351 0.13202854
47.099937 66 46.20047 -0.88843113 -0.13726187 0.4380061 0.21793719
9.3000002 29.700001 32.700333 -0.88744223 0.28419083 -0.36287993 0.015035301
11.1 42.900002 44.175449 -0.65575588 0.55691969 -0.50972992 0.0090021994
16.5 55.799999 38.700394 -0.77673399 0.43716991 -0.45339477 0.014660892
68.999939 25.200003 51.700527 -0.79855889 -0.60191464 0.0015219778 0.25891694
75.300003 25.200001 58.200592 -0.83826226 -0.16108342 -0.52093053 0.038241528
47.871376 64.714287 52.714825 -0.32707071 -0.74388814 -0.58279943 0.0036998892
53.199917 63.299999 43.200439 0.096595518 -0.68246651 -0.7245059 0.14310794
51.599911 50.200001 51.100521 -0.93330061 -0.35640869 -0.043849286 0.0037197601
54.599903 54.900002 57.78059 -0.11810836 -0.92405421 0.36355767 0.071815751
18.300001 25.5 33.120338 0.76232129 -0.46931973 -0.44565153 0.0329233
4.8000002 27.299997 37.200378 0.61145246 0.46895349 -0.63734484 0.041544281
42.749958 63.100002 67.55069 -0.21078049 -0.73866463 -0.64027047 0.044772971
68.299934 25.800001 51.150524 -0.6858415 -0.72332525 -0.080137253 0.13079062
73.799988 26.700003 38.100388 -0.090344734 0.84201515 -0.53183496 0.048758619
28.199997 65.699997 51.900528 0.26167476 -0.74985796 -0.60765064 0.0042258846
60.899891 47.700001 48.000488 -0.83640981 -0.52583033 0.15466438 0.17936371
75.299995 27.779999 32.280327 -0.54130322 0.77113515 -0.33517367 0.009611953
70.199974 21.299999 50.700516 -0.64701706 -0.70740467 0.28451306 0.094413534
58.799892 55.200001 50.250511 -0.79263699 -0.58601624 -0.1682606 0.0035666421
16.200001 56.400002 45.075459 0.78253728 -0.54159087 0.307107 0.028178763
74.699997 29.4 36.075367 -0.2642656 0.82280964 -0.50313812 0.011300768
63.719887 29.280003 32.700333 -0.29538712 0.24932691 -0.92227036 0.047915
46.799953 65.280006 52.620533 -0.29798895 -0.74207669 -0.6004371 0.0044651306
78.000031 24.699999 51.75053 -0.94865453 0.31552234 -0.02236524 0.072592676
59.099903 25.620001 38.700394 -0.94544309 -0.32553035 -0.012938453 0.10279882
76.800056 23.700003 60.800617 -0.79240304 0.11044654 -0.59991568 0.020529976
5.7000008 28.699999 38.300388 0.45869917 0.45352775 -0.76413852 0.04354123
47.899937 68.200005 44.400452 -0.25310552 -0.31156608 -0.91589534 0.12711672
18.000002 31.650002 41.20042 -0.92418998 -0.10493909 0.36723381 0.03601259
51.299938 67.650002 46.650471 -0.32272217 -0.78213203 -0.53302902 0.02547772
58.349899 41.700001 47.400482 -0.30058634 0.11404972 -0.94691104 0.040390033
74.700043 22.200003 57.600586 0.30261657 0.48068234 -0.82302356 0.065019235
64.349892 20.099998 39.150398 -0.40498075 -0.86213309 -0.30449477 0.040101919
51.899914 49.200001 50.700516 -0.94100028 -0.33562711 -0.043278303 0.0031751501
5.7000003 25.200001 35.700363 0.82186103 0.38091168 -0.4236162 0.10140589
22.799997 66 46.20047 0.90147704 -0.37174287 -0.22168995 0.036407385
62.799885 41.299999 39.150398 -0.33720106 -0.93755496 0.085359491 0.010661791
52.449921 63.249996 51.250519 -0.61103976 -0.64075273 -0.46482942 0.0061909314
17.700003 34.200001 42.000427 -0.97862709 -0.029989228 0.2034447 0.027887609
72.675003 16.200001 30.075306 -0.36855933 -0.92147326 -0.12268279 0.14541055
65.19989 31.699999 36.750374 -0.49272436 -0.86404473 0.10319632 0.042424139
7.8000021 26.4 34.500351 0.13153392 0.25342149 -0.9583717 0.063290939
35.249969 60.299999 58.200592 0.0069453488 -0.84213614 -0.53922021 0.025223015
60.899891 48.200001 48.700497 -0.73230439 -0.67511326 0.08917582 0.24107584
70.585716 18 42.77187 -0.17683399 -0.9232775 0.34101081 0.18537213
40.424973 64.199997 66.675674 -0.19839062 -0.65080535 -0.7328667 0.089427531
19.199997 37.799999 41.100418 -0.79865724 0.35000026 -0.48953703 0.0042119958
47.999924 57 58.500595 -0.55332327 -0.61637789 -0.56027824 0.16746475
56.228477 54.728573 72.600739 -0.62371618 -0.38106614 -0.6824711 0.0065942258
17.325001 41.325001 43.500443 -0.63615638 -0.77017522 0.04620773 0.22385862
76.200012 24.599998 32.40033 -0.01398448 -0.9543432 0.2983847 0.067205124
45.299942 60.150002 58.500595 0.34830973 0.17410637 -0.92106855 0.088085674
10.2 37.200001 39.150398 -0.9480145 0.19245525 -0.25343552 0.063217223
63.299885 24.299997 33.000336 -0.52014714 0.2341695 -0.82134742 0.026930515
69.299942 20.700001 41.25042 -0.88229656 -0.44844505 0.14300317 0.051849075
71.399963 32.400002 46.20047 -0.5450992 -0.72328413 0.42394203 0.010059535
71.249962 34.200001 50.400513 -0.49531791 -0.84914172 0.18335348 0.027896501
56.999905 31.200001 44.25045 -0.99894196 0.036272272 -0.028271988 0.035013046
6.6750011 29.325001 40.200409 0.8285954 0.35052437 -0.43653443 0.059729937
10.671432 25.800001 31.671751 -0.53555799 -0.68426239 -0.49493697 0.0080524087
48.299923 59.25 46.650471 -0.50695264 -0.47362137 -0.72019559 0.006486116
32.249981 62.399998 57.750587 -0.52689958 0.6600458 -0.53545916 0.09266533
60.899891 48.75 49.2005 -0.96479815 -0.22588967 0.13467894 0.23138036
57.69989 53.199997 72.100731 -0.64459109 -0.36162394 -0.67359513 0.0082145752
29.199974 61.699997 45.800461 0.561593 -0.50241208 -0.65741563 0.0052236915
27.899986 65.400002 44.700455 -0.86564392 -0.43944424 0.23989449 0.19790669
37.499992 73.5 40.200409 0.060232621 -0.98324597 0.17204507 0.10899211
44.999943 61.200001 58.500595 -0.56946349 -0.39147726 0.72281176 0.065736823
10.200004 26.25 31.650322 -0.63971603 -0.58291262 -0.50097531 0.012884352
31.799978 64.800003 45.300461 0.44347 -0.50547475 -0.74015528 0.034340926
62.999889 44.400005 48.000488 -0.67275161 -0.42301375 0.60701293 0.13395129
76.500008 23.25 19.500198 -0.75779635 -0.25483033 -0.60067147 0.16088913
55.799908 39.100002 48.100491 -0.93566233 -0.20348513 -0.28832227 0.0094221625
40.328522 64.585709 47.100483 0.073876224 -0.65409768 -0.75279385 0.021323761
25.199997 64.199997 52.200531 0.37718916 -0.72944367 -0.57064897 0.0030986019
53.699905 55.5 50.700516 -0.92590666 0.30318722 -0.22533169 0.13700414
18.728567 51.685711 37.500385 -0.15865791 -0.57537299 -0.80235505 0.045967005
21.224998 62.324997 36.900375 -0.14842232 0.36258283 -0.92005676 0.044544231
45.728512 60.171429 58.757744 0.36453304 0.30600783 -0.87947416 0.07278157
19.499998 30.771429 35.186073 -0.94182062 -0.18000926 0.28384951 0.049570128
38.819962 66.689987 44.220451 -0.44105595 -0.72640485 -0.52707273 0.051566392
32.849998 68.699997 50.10051 0.059959561 -0.84943408 -0.52427709 0.018232085
37.299961 68.100006 44.200451 0.63589555 -0.76155531 0.12518084 0.22135927
54.899906 43.671429 47.271912 -0.81836104 -0.24413575 -0.52027196 0.0065898253
30.749977 59.700001 58.650597 0.57174957 -0.34296015 -0.74530578 0.20896211
16.575005 24.787502 32.287827 0.36101845 -0.64750677 -0.67111897 0.041608684
63.899883 39.200001 37.200378 -0.58798242 -0.33993769 0.73397487 0.015956398
17.699999 44.700001 46.800476 0.36134005 0.18386886 -0.91412562 0.12458535
5.2666669 27.699999 37.667046 0.63648051 0.33661816 -0.69396025 0.058737002
69.89994 24.299999 45.600464 -0.91798079 -0.34502766 0.19562015 0.0092056505
37.79995 57.299999 70.200714 -0.014552067 -0.89762431 0.44052109 0.0066157295
37.799961 66.300003 46.20047 -0.34550148 -0.41364169 -0.84233558 0.12417509
9.6000032 26.099998 33.700344 -0.71642357 -0.46879378 -0.51669127 0.10912153
34.799988 64.5 66.600677 0.020958809 -0.89862061 -0.43822557 0.058266029
28.199984 65.299995 41.25042 0.84696722 -0.3480919 -0.40184411 0.038686097
73.500015 16.799999 42.780434 -0.52477628 0.85102975 -0.018928526 0.17360346
55.499905 45.75 49.650505 -0.96898752 -0.18856819 -0.15970328 0.037151005
58.349899 31.687502 41.25042 -0.68578362 -0.72777194 0.0069836797 0.12557332
55.499905 46.200001 49.2005 -0.94138777 -0.18760368 -0.28034592 0.03802669
41.699982 70.199997 47.100479 -0.60726005 -0.43777394 -0.66301525 0.083010361
31.349976 60.1875 57.825584 -0.29044461 -0.5949018 -0.74948901 0.17491028
6.1200004 19.200001 30.900314 -0.052773297 -0.92321205 -0.38065028 0.15224877
51.84993 67.200005 46.700474 -0.59468412 -0.63476741 -0.49337736 0.019709527
63.712383 42.112503 45.825462 -0.54538602 -0.74228209 0.38932177 0.0031240627
21.599997 62.700001 45.000458 0.26783764 -0.85982668 0.43469661 0.10868058
22.6 64.700005 45.750469 -0.88748574 0.35349041 -0.29565772 0.094700076
60.749893 41.700001 47.400482 0.070570961 0.21489844 -0.97408336 0.018923856
58.349892 46.200001 45.000458 0.03163632 -0.0096017877 -0.99945331 0.010432369
39.199997 68.299995 51.100521 0.060081903 -0.88017952 -0.4708229 0.011609125
67.199913 30.6 35.40036 -0.68448901 -0.65428561 0.32153544 0.010476292
62.324886 46.200001 48.825497 -0.70809019 -0.53252423 0.46370935 0.0028272087
61.499889 47.400002 49.2005 -0.71906197 -0.69463331 0.020842442 0.18326771
41.699936 56.099998 67.80069 -0.23076101 -0.95043063 0.20840061 0.0064841085
55.2999 50.200001 44.700455 -0.15837914 -0.552297 -0.8184644 0.069716461
64.379883 29.700001 32.700333 -0.034648463 0.36185989 -0.93158841 0.035947561
55.799908 43.200001 46.20047 -0.70658946 -0.18298313 -0.68355578 0.011546594
76.800056 24.171431 60.814907 -0.79883742 0.029804094 -0.6008082 0.013213632
64.19989 26.300001 33.600342 -0.47391248 0.11204973 -0.87341386 0.049502961
23.099983 54.599995 40.200409 -0.9023937 -0.35561734 -0.24335574 0.010396437
72.799973 30.733334 45.733799 -0.71659756 -0.67203057 0.18671574 0.0060272422
55.499905 46.650002 49.2005 -0.94199842 -0.14652666 -0.30194193 0.06174555
18.799997 41.700001 45.200459 0.91371608 -0.17214371 -0.36808887 0.1376117
49.199917 56.099998 48.720497 -0.69149709 -0.59401083 -0.41107535 0.0064827213
2.7 25.6 58.200592 -0.96810043 -0.03314719 -0.24836032 0.078959502
51.799915 57.899998 58.650593 -0.25225165 -0.89577186 0.36600804 0.026282946
32.099976 67.199997 44.700455 -0.92293197 0.17898871 0.34082192 0.17219836
48.299923 56.700001 59.100601 -0.78444415 -0.38357198 -0.48736012 0.1709898
69.674942 33.112503 41.287922 -0.35894573 -0.71478897 0.60019553 0.0041552177
4.1999998 23.1 35.40036 0.96269053 -0.12636881 -0.23928611 0.10914432
15.780004 30.179998 33.600342 0.42855701 0.11509892 -0.89615351 0.040897127
30.779999 67.740005 50.700516 0.18916294 -0.7532981 -0.62988836 0.010568823
6 23.4 47.220482 0.67087245 -0.70179504 0.239612 0.0077944589
34.259998 68.699997 50.28051 0.024768241 -0.87589508 -0.48186541 0.016155377
12.000001 33.900002 35.100357 0.50671333 -0.77209234 0.38355577 0.073872723
60.299892 42.299999 47.700485 0.10986445 0.2959722 -0.94885737 0.012259696
24.733315 60.166668 37.633713 0.64113802 0.040646594 -0.76634836 0.040674884
19.399996 51.150005 37.800385 -0.085641891 -0.65525484 -0.75053751 0.037173498
58.349899 44.099998 47.700485 -0.063676611 0.17501184 -0.98250502 0.010818024
3.8999999 23.249998 34.700352 -0.98604971 -0.1241349 0.11088984 0.090762809
65.249893 39.75 40.650414 -0.78699309 -0.61661851 -0.02058069 0.016677529
19.499994 44.25 46.20047 0.94570166 -0.26432288 -0.18916081 0.1487049
68.999939 31.200001 44.700455 -0.90977198 0.24546751 -0.33475465 0.061047118
60.599888 51.599998 50.700516 -0.93188202 -0.33768475 0.13253276 0.0068792314
61.19989 47.700001 48.300491 -0.83097255 -0.51272029 0.21587618 0.10994963
72.750008 16.65 41.700424 -0.011609464 -0.94767815 0.31901616 0.17019218
71.299965 33.699997 48.7505 -0.59481555 -0.78195775 0.18637756 0.0049590603
18.299997 55.200001 37.200378 -0.27124494 0.13407184 -0.95312691 0.018163281
56.399906 37.200001 47.700485 -0.96132737 -0.23058139 -0.15060496 0.0083624227
56.228477 57.600002 39.771832 -0.60656857 -0.52675539 0.59548587 0.086624607
60.824886 50.700001 50.325512 -0.94084156 -0.26828077 0.20698465 0.0069107804
61.799885 41.700001 47.700485 -0.38403779 -0.39946145 0.83243352 0.035383619
43.799953 62.700001 67.200684 -0.26539457 -0.87309813 -0.40898079 0.084455684
55.499901 54.900002 56.700577 -0.41708237 -0.8837046 0.21238765 0.10576386
32.249973 60 57.800587 -0.098926619 -0.74533552 -0.65930909 0.048691783
29.819998 66.599998 51.600525 0.19421446 -0.72138363 -0.66474539 0.0036242825
17.400003 34.799999 41.700424 -0.98022771 0.035203755 0.19471571 0.046675701
18.150002 28.620001 38.250389 -0.90756875 0.1669988 -0.38526642 0.046922173
30.299997 68.099998 50.10051 0.18799023 -0.82483041 -0.53321141 0.013313455
28.499975 60.599995 46.20047 0.58719826 -0.53947914 -0.60345697 0.0032606032
56.999901 30.720001 44.280449 -0.9987179 0.0045091114 0.050421122 0.039422408
48.799938 64.199997 52.800537 -0.3346431 -0.74536943 -0.57657462 0.0032072207
36.75 67.800003 67.200684 0.157478 -0.97426295 0.16128406 0.0063670124
14.100006 24 36.000366 0.10666959 -0.80703586 -0.58078814 0.11219297
72.300003 17.700001 45.000458 -0.37781069 -0.91519827 0.14025387 0.18119606
73.349983 30.9 39.000397 -0.10297955 0.81984484 -0.56324923 0.006212614
22.379995 63 37.200378 -0.10939949 -0.48666036 0.86671418 0.048471756
63.299885 28.620001 53.220543 -0.50076264 -0.65630585 0.56435746 0.0015979199
33.75 65.699997 62.700638 0.45598322 -0.86298567 0.21756585 0.24423143
56.099903 63 41.700424 -0.71131682 -0.68223363 0.16907272 0.008616969
56.849899 49.200001 44.700455 -0.025125716 -0.22843766 -0.97323424 0.0082345232
53.142765 53.228573 44.271877 -0.94918531 0.21422222 0.23055607 0.084456764
76.5 23.219999 19.200195 -0.75674075 -0.26614955 -0.59708285 0.14898199
28.671431 70.799995 44.229023 0.53393859 -0.78395975 -0.316728 0.023763645
9.6000032 21.719999 33.900345 0.45215523 -0.11259123 -0.88480437 0.0086419117
59.69989 55.5 42.780434 -0.93079424 -0.3558017 -0.083828203 0.019728551
71.099953 27.9 40.200409 -0.31809038 0.47360528 -0.82128966 0.013844678
61.799889 42.824997 48.225491 0.06219409 0.50706458 -0.85966116 0.26949629
25.199984 58.599995 41.25042 -0.89612424 0.43114784 -0.10522766 0.039332926
68.999939 30.75 43.800446 -0.83777839 0.21306001 -0.50272542 0.075777054
18.224998 56.700001 44.100449 0.09317027 -0.75850827 0.64496863 0.15231015
1.8 28.200001 35.700363 -0.94385624 -0.32248354 -0.071692854 0.13661422
62.799885 45.099998 48.200485 -0.66985154 -0.50776798 0.54172927 0.00095156301
67.199921 21.599998 47.400482 -0.47089636 -0.7775749 0.41669422 0.0020980786
29.699974 62.400005 45.900467 0.52459651 -0.51247311 -0.67983073 0.0080011208
44.099937 60.599998 49.620506 -0.58520275 -0.67840546 -0.44418895 0.0063944748
18.599997 52.200001 37.200378 -0.10390001 -0.43344209 -0.89517194 0.032828011
19.799995 44.220001 46.800476 0.95410919 -0.23378417 -0.18713811 0.13694678
55.199902 55.200001 56.700577 -0.18813904 -0.95862478 0.2136406 0.093054466
38.849945 57 61.650627 -0.10330509 -0.96878922 -0.22533411 0.0064021191
64.19989 26.700003 51.900528 -0.49052399 -0.66954076 0.55776453 0.0010718821
73.500046 19.200001 46.20047 -0.80703592 -0.5608241 0.18484952 0.17727055
22.499992 62.25 37.200378 0.24037682 0.30161342 -0.9226312 0.033569332
71.100006 20.700001 51.750526 -0.79373378 -0.60450149 0.067561768 0.16978644
45.899933 58.200001 51.720528 -0.64149201 -0.74256909 -0.1925593 0.0023372383
1.8 27.9 35.700363 -0.92783135 -0.37229684 -0.022892106 0.12197664
10.200001 33.18 35.280357 0.63264376 -0.75627768 0.16675109 0.019361995
29.819981 66.300003 41.700424 0.16146035 -0.68622816 -0.70924014 0.038919427
49.399914 57.799995 46.700474 -0.58383977 -0.42646125 -0.6908415 0.010327791
70.199944 24.814285 47.229053 -0.93392158 -0.34746543 0.084013529 0.018686822
40.700001 67.75 51.900524 -0.090605453 -0.77122343 -0.63008332 0.0083854226
28.249998 70.700005 43.600445 0.65522861 -0.71664047 -0.23896006 0.027735475
20.39999 47.700001 45.600464 0.82701373 -0.42830831 -0.36414322 0.0072170305
70.349953 22.199999 43.65044 -0.97843587 0.069839597 0.19438541 0.024846021
41.699978 66.599998 66.900681 -0.49537373 -0.84371376 0.20676522 0.0034401319
34.274998 66.599998 65.400665 0.43043107 -0.87544644 0.21982424 0.0031241612
60.299889 49.620003 71.280724 -0.66169977 -0.33903095 -0.66873872 0.0047217151
47.999928 59.099995 60.00061 -0.74659854 -0.2258478 0.62576616 0.0709389
17.700003 26.699999 41.700424 -0.72549129 0.29695493 -0.62087059 0.012290823
53.699913 61.799999 45.900467 0.066322118 -0.9926244 0.10148032 0.12006731
50.099926 64.199997 40.200409 -0.42804065 -0.48131788 -0.76492763 0.0078196013
70.799957 23.324999 46.725475 -0.91457951 -0.36340609 0.17742668 0.023101633
19.199995 44.299999 45.150463 0.85925835 -0.18853602 -0.47553053 0.012301009
28.199986 65.25 43.200439 -0.98384494 0.17897898 0.0039589191 0.16783649
54.7999 48.799999 45.150463 -0.33129683 -0.32007799 -0.8875767 0.0096157808
24.29999 57.899998 41.700424 0.52355754 -0.83391184 0.17458093 0.040318504
8.1857166 24.171429 33.686058 0.44627136 0.27363113 -0.85203743 0.0068955119
28.5 68.25 45.900467 -0.93793076 0.34373194 -0.046197895 0.10753263
39.824959 66.300003 44.700455 0.23149417 -0.79156029 -0.56554651 0.06478703
19.799995 51.100002 37.800385 -0.022995653 -0.66131806 -0.74975306 0.043048274
19.799994 46.600002 45.10046 0.77852488 -0.37364501 -0.50427014 0.015811294
